1826,1823,1817,1814,1811,1808,1802,1799,1796,1790,1787,1784,1778,1775,1772,1766,1763,1763,1763,1760,1760,1760,1757,1757,1757,1754,1754,1754,1751,1751,1748,1748,1745,1745,1742,1742,1739,1739,1736,1736,1733,1733,1730,1730,1727,1727,1724,1724,1721,1721,1721,1724,1724,1727,1730,1730,1733,1736,1739,1742,1742,1742,1742,1742,1742,1742,1745,1745,1745,1745,1745,1745,1748,1748,1748,1748,1748,1748,1748,1748,1748,1745,1745,1745,1745,1742,1742,1742,1742,1739,1739,1739,1739,1736,1736,1736,1736,1733,1733,1733,1733,1733,1730,1730,1730,1730,1727,1727,1727,1727,1724,1724,1727,1730,1733,1736,1733,1733,1733,1733,1733,1733,1733,1733,1733,1733,1733,1733,1730,1730,1730,1733,1733,1733,1733,1733,1733,1733,1733,1733,1733,1733,1733,1733,1733,1736,1736,1736,1736,1736,1736,1736,1736,1736,1733,1730,1727,1724,1721,1721,1718,1715,1712,1709,1706,1703,1703,1700,1697,1694,1691,1688,1685,1685,1682,1679,1676,1673,1673,1673,1673,1676,1676,1676,1679,1679,1679,1679,1682,1682,1685,1688,1691,1691,1694,1694,1697,1697,1700,1700,1703,1703,1706,1709,1709,1712,1715,1715,1718,1721,1721,1724,1727,1727,1730,1733,1733,1736,1736,1739,1739,1742,1742,1742,1745,1748,1751,1754,1760,1766,1769,1772,1778,1784,1790,1799,1802,1805,1811,1817,1823,1826,1832,1838,1844,1850,1853,1859,1865,1871,1874,1880,1883,1886,1889,1892,1895,1898,1901,1904,1904,1907,1910,1913,1916,1922,1925,1922,1919,1913,1910,1907,1904,1901,1895,1892,1889,1886,1883,1880,1877,1877,1877,1877,1877,1877,1880,1880,1880,1880,1877,1877,1877,1874,1874,1874,1871,1871,1868,1865,1862,1859,1856,1853,1853,1856,1856,1856,1856,1856,1859,1859,1859,1862,1862,1865,1865,1868,1868,1871,1871,1874,1874,1874,1877,1877,1880,1880,1883,1889,1892,1898,1901,1907,1910,1916,1919,1925,1928,1931,1931,1934,1934,1937,1934,1934,1931,1931,1928,1928,1925,1922,1919,1913,1907,1898,1892,1886,1877,1871,1868,1865,1859,1856,1853,1850,1847,1847,1844,1841,1841,1838,1835,1835,1832,1829,1829,1826,1823,1823,1820,1817,1817,1814,1811,1811,1808,1805,1805,1802,1799,1799,1796,1793,1793,1790,1787,1787,1784,1781,1781,1778,1775,1775,1775,1778,1778,1781,1781,1781,1784,1784,1787,1787,1787,1790,1790,1793,1793,1793,1796,1793,1793,1790,1787,1784,1781,1778,1778,1775,1772,1769,1766,1763,1760,1760,1757,1754,1751,1751,1748,1748,1745,1742,1742,1739,1739,1736,1733,1736,1736,1736,1739,1739,1739,1742,1742,1742,1745,1745,1745,1748,1748,1748,1751,1751,1754,1754,1757,1757,1760,1760,1763,1763,1763,1760,1760,1760,1760,1757,1757,1757,1757,1757,1757,1757,1757,1757,1757,1757,1757,1757,1757,1757,1754,1751,1748,1745,1742,1739,1736,1733,1730,1724,1721,1718,1712,1709,1703,1700,1697,1691,1688,1682,1679,1673,1670,1667,1661,1658,1652,1649,1646,1640,1637,1631,1628,1625,1622,1622,1619,1616,1613,1610,1607,1604,1601,1598,1595,1589,1586,1583,1580,1577,1574,1568,1565,1562,1559,1556,1550,1547,1544,1541,1538,1532,1529,1526,1523,1517,1514,1511,1508,1502,1493,1487,1481,1472,1469,1463,1460,1457,1451,1448,1442,1439,1436,1430,1427,1421,1418,1412,1409,1403,1400,1397,1391,1388,1382,1379,1373,1370,1364,1361,1355,1352,1349
1829,1823,1820,1817,1811,1808,1805,1799,1796,1793,1790,1784,1781,1778,1772,1769,1766,1766,1763,1763,1760,1760,1760,1757,1757,1757,1754,1754,1751,1751,1748,1748,1745,1745,1742,1742,1739,1739,1736,1736,1733,1733,1730,1730,1727,1727,1724,1724,1721,1721,1721,1721,1724,1724,1727,1730,1733,1733,1736,1739,1739,1739,1742,1742,1742,1742,1742,1742,1745,1745,1745,1745,1745,1745,1748,1748,1748,1748,1745,1745,1745,1745,1742,1742,1742,1742,1739,1739,1739,1739,1739,1736,1736,1736,1736,1733,1733,1733,1733,1730,1730,1730,1730,1727,1727,1727,1727,1724,1724,1724,1724,1724,1724,1727,1730,1730,1730,1730,1730,1730,1730,1730,1730,1730,1730,1730,1727,1727,1727,1727,1727,1727,1730,1730,1730,1730,1730,1730,1730,1730,1730,1733,1733,1733,1733,1733,1733,1733,1733,1733,1733,1733,1733,1733,1730,1727,1727,1724,1721,1718,1715,1712,1709,1709,1706,1703,1700,1697,1694,1691,1691,1688,1685,1682,1679,1676,1673,1673,1670,1670,1670,1673,1673,1673,1676,1676,1676,1676,1679,1679,1682,1685,1688,1691,1691,1691,1694,1694,1697,1697,1700,1700,1703,1706,1706,1709,1712,1712,1715,1718,1718,1721,1724,1724,1727,1730,1730,1733,1736,1736,1739,1739,1742,1742,1745,1745,1748,1751,1757,1760,1766,1769,1775,1784,1790,1796,1802,1802,1808,1814,1817,1823,1829,1835,1841,1844,1850,1856,1862,1865,1871,1877,1880,1880,1883,1886,1889,1892,1895,1898,1898,1901,1907,1913,1916,1922,1925,1925,1919,1916,1910,1907,1901,1898,1895,1892,1889,1886,1880,1877,1877,1874,1874,1874,1874,1877,1877,1877,1877,1874,1874,1874,1871,1871,1871,1868,1868,1868,1865,1862,1859,1856,1853,1850,1847,1850,1850,1850,1850,1853,1853,1856,1856,1856,1859,1859,1862,1862,1865,1865,1868,1868,1871,1871,1874,1874,1877,1877,1880,1883,1889,1892,1898,1901,1907,1910,1916,1919,1925,1928,1931,1934,1934,1934,1934,1934,1931,1931,1928,1925,1925,1922,1916,1910,1907,1901,1892,1886,1880,1871,1868,1865,1862,1856,1853,1850,1844,1841,1838,1838,1835,1832,1832,1829,1829,1826,1823,1823,1820,1817,1817,1814,1811,1811,1808,1805,1805,1802,1799,1799,1796,1793,1793,1790,1787,1787,1784,1781,1781,1778,1775,1775,1772,1769,1769,1772,1772,1775,1775,1775,1778,1778,1781,1781,1781,1784,1784,1787,1787,1787,1790,1787,1787,1784,1781,1778,1775,1772,1769,1769,1766,1763,1760,1757,1754,1754,1751,1748,1748,1745,1742,1742,1739,1739,1736,1736,1733,1730,1730,1727,1727,1730,1730,1730,1733,1733,1733,1736,1736,1736,1739,1739,1739,1742,1742,1745,1745,1748,1748,1751,1751,1754,1754,1757,1757,1760,1757,1757,1757,1757,1754,1754,1754,1754,1754,1754,1754,1754,1754,1754,1754,1757,1757,1757,1754,1751,1748,1745,1742,1739,1736,1733,1730,1724,1721,1715,1712,1709,1703,1700,1694,1691,1688,1682,1679,1673,1670,1667,1661,1658,1652,1649,1643,1640,1637,1631,1625,1625,1622,1622,1616,1613,1610,1607,1604,1601,1598,1595,1592,1589,1583,1580,1577,1574,1571,1568,1562,1559,1556,1553,1550,1544,1541,1538,1535,1532,1526,1523,1520,1517,1514,1508,1505,1499,1493,1487,1478,1472,1466,1460,1457,1451,1448,1442,1439,1433,1430,1427,1421,1418,1412,1409,1403,1400,1394,1391,1388,1382,1379,1373,1370,1364,1361,1358,1352,1349,1343
1829,1826,1823,1817,1814,1811,1805,1802,1799,1793,1790,1787,1781,1778,1775,1769,1766,1766,1766,1763,1763,1763,1760,1760,1757,1757,1754,1754,1751,1751,1748,1748,1745,1745,1742,1742,1739,1739,1736,1736,1733,1733,1730,1730,1727,1727,1724,1724,1721,1721,1721,1721,1721,1724,1724,1727,1730,1733,1736,1736,1739,1739,1739,1739,1742,1742,1742,1742,1742,1742,1745,1745,1745,1745,1745,1745,1745,1745,1745,1745,1742,1742,1742,1742,1739,1739,1739,1739,1736,1736,1736,1736,1733,1733,1733,1733,1730,1730,1730,1730,1730,1727,1727,1727,1727,1724,1724,1724,1724,1721,1721,1721,1721,1724,1727,1727,1727,1727,1727,1727,1727,1727,1727,1727,1724,1724,1724,1724,1724,1724,1724,1724,1724,1727,1727,1727,1727,1730,1730,1730,1730,1730,1730,1730,1730,1730,1730,1730,1730,1730,1730,1730,1730,1730,1727,1727,1724,1721,1718,1715,1715,1712,1709,1706,1703,1700,1697,1697,1694,1691,1688,1685,1682,1679,1679,1676,1673,1670,1667,1667,1667,1670,1670,1670,1673,1673,1673,1676,1676,1679,1679,1682,1685,1688,1688,1691,1691,1694,1694,1694,1697,1697,1700,1703,1703,1706,1709,1709,1712,1715,1715,1718,1721,1721,1724,1727,1727,1730,1733,1733,1736,1739,1739,1742,1742,1745,1745,1748,1751,1757,1760,1769,1775,1781,1787,1796,1799,1802,1805,1808,1814,1820,1826,1832,1835,1841,1847,1853,1856,1862,1868,1871,1871,1874,1877,1880,1883,1886,1889,1892,1895,1901,1907,1913,1919,1922,1925,1925,1919,1916,1910,1907,1901,1898,1895,1892,1886,1883,1880,1877,1874,1874,1871,1874,1874,1874,1874,1874,1871,1871,1871,1868,1868,1868,1865,1865,1865,1862,1859,1859,1856,1853,1850,1847,1844,1844,1844,1844,1847,1847,1850,1850,1853,1853,1856,1856,1856,1859,1859,1862,1862,1865,1865,1868,1868,1871,1871,1874,1877,1880,1886,1889,1895,1898,1904,1907,1913,1916,1922,1925,1928,1931,1934,1934,1934,1934,1931,1928,1928,1925,1922,1922,1916,1910,1904,1901,1895,1886,1880,1874,1868,1865,1862,1859,1853,1850,1844,1838,1838,1835,1832,1829,1829,1826,1823,1823,1820,1817,1814,1814,1811,1808,1808,1805,1802,1802,1799,1796,1796,1793,1790,1790,1787,1784,1784,1781,1778,1778,1775,1772,1772,1769,1766,1766,1763,1766,1766,1769,1769,1769,1772,1772,1775,1775,1775,1778,1778,1781,1781,1781,1784,1781,1778,1778,1775,1772,1769,1766,1763,1763,1760,1757,1754,1751,1748,1748,1745,1745,1742,1739,1739,1736,1736,1733,1730,1730,1727,1727,1724,1721,1721,1721,1721,1724,1724,1724,1727,1727,1727,1730,1730,1730,1733,1733,1736,1736,1739,1739,1742,1742,1745,1745,1748,1748,1751,1751,1754,1754,1754,1754,1751,1751,1751,1751,1751,1751,1751,1751,1754,1754,1754,1754,1754,1754,1754,1754,1751,1748,1745,1742,1736,1733,1727,1724,1721,1715,1712,1706,1703,1700,1694,1691,1685,1682,1679,1673,1670,1664,1661,1658,1652,1649,1643,1640,1634,1631,1628,1625,1622,1619,1616,1613,1607,1604,1601,1598,1595,1592,1589,1586,1583,1580,1574,1571,1568,1565,1562,1556,1553,1550,1547,1544,1538,1535,1532,1529,1526,1520,1517,1514,1511,1508,1502,1496,1487,1481,1475,1469,1463,1454,1451,1448,1442,1439,1433,1430,1427,1421,1418,1412,1409,1403,1400,1397,1391,1388,1382,1379,1373,1370,1367,1361,1358,1352,1349,1343,1340
1832,1826,1823,1820,1814,1811,1808,1805,1799,1796,1793,1787,1784,1781,1775,1769,1769,1769,1766,1766,1766,1763,1763,1760,1757,1757,1754,1754,1751,1751,1748,1748,1745,1745,1742,1742,1739,1739,1736,1736,1733,1733,1730,1730,1727,1727,1724,1724,1721,1721,1721,1721,1721,1721,1724,1724,1727,1730,1733,1736,1739,1739,1739,1739,1739,1739,1742,1742,1742,1742,1742,1742,1742,1745,1745,1745,1745,1745,1742,1742,1742,1742,1739,1739,1739,1739,1736,1736,1736,1733,1733,1733,1733,1733,1730,1730,1730,1730,1727,1727,1727,1727,1724,1724,1724,1724,1721,1721,1721,1721,1721,1718,1718,1721,1724,1724,1724,1724,1724,1724,1724,1724,1724,1721,1721,1721,1721,1721,1721,1721,1721,1721,1721,1724,1724,1727,1727,1727,1727,1727,1727,1727,1727,1727,1727,1727,1727,1727,1727,1727,1727,1727,1727,1727,1727,1724,1721,1718,1718,1715,1712,1709,1706,1703,1703,1700,1697,1694,1691,1688,1685,1685,1682,1679,1676,1673,1670,1667,1664,1664,1664,1667,1667,1667,1670,1670,1670,1673,1673,1676,1679,1679,1682,1685,1685,1688,1688,1691,1691,1694,1694,1697,1697,1700,1700,1703,1706,1706,1709,1712,1712,1715,1718,1718,1721,1724,1724,1727,1730,1730,1733,1736,1736,1739,1742,1742,1745,1745,1748,1754,1760,1766,1772,1781,1787,1793,1796,1799,1802,1805,1811,1817,1823,1826,1832,1838,1844,1847,1853,1859,1862,1865,1865,1868,1871,1874,1877,1880,1883,1889,1895,1901,1907,1913,1919,1925,1925,1925,1922,1916,1913,1907,1904,1898,1895,1889,1886,1883,1880,1877,1871,1871,1871,1871,1871,1871,1871,1871,1868,1868,1868,1865,1865,1865,1862,1862,1862,1859,1856,1856,1853,1850,1847,1844,1841,1838,1838,1841,1841,1844,1844,1847,1847,1850,1850,1853,1853,1856,1856,1859,1859,1859,1862,1862,1865,1865,1868,1868,1871,1877,1880,1886,1889,1895,1898,1904,1907,1913,1916,1922,1925,1931,1934,1934,1934,1931,1931,1928,1925,1925,1922,1919,1916,1910,1901,1898,1892,1886,1880,1874,1871,1865,1862,1856,1853,1847,1841,1838,1835,1832,1832,1829,1826,1823,1823,1820,1817,1814,1814,1811,1808,1805,1805,1802,1799,1796,1796,1793,1790,1790,1787,1784,1784,1781,1778,1778,1775,1772,1772,1769,1766,1766,1763,1760,1760,1760,1760,1763,1763,1766,1766,1766,1769,1769,1769,1772,1772,1775,1775,1775,1778,1775,1772,1772,1769,1766,1763,1760,1757,1754,1754,1751,1748,1745,1745,1742,1739,1739,1736,1736,1733,1733,1730,1727,1727,1724,1724,1721,1718,1718,1715,1715,1715,1715,1715,1718,1718,1718,1721,1721,1721,1724,1724,1727,1727,1730,1730,1733,1733,1736,1736,1739,1739,1742,1742,1745,1745,1748,1748,1748,1751,1748,1748,1748,1748,1748,1751,1751,1751,1751,1751,1751,1751,1751,1751,1751,1751,1748,1745,1742,1736,1733,1727,1724,1721,1715,1712,1706,1703,1697,1694,1691,1685,1682,1676,1673,1667,1664,1661,1655,1652,1646,1643,1637,1634,1628,1625,1622,1619,1616,1613,1610,1607,1601,1598,1595,1592,1589,1586,1583,1580,1577,1574,1568,1565,1562,1559,1556,1550,1547,1544,1541,1538,1532,1529,1526,1523,1520,1514,1511,1505,1502,1496,1490,1484,1475,1469,1463,1457,1451,1448,1442,1439,1436,1430,1427,1421,1418,1415,1409,1406,1400,1397,1391,1388,1385,1379,1376,1370,1367,1361,1358,1355,1349,1346,1340,1340
1832,1829,1826,1820,1817,1814,1808,1805,1802,1799,1793,1790,1787,1781,1775,1772,1769,1769,1769,1766,1766,1766,1763,1760,1757,1757,1754,1754,1751,1751,1748,1748,1745,1745,1742,1742,1739,1739,1736,1736,1733,1733,1730,1730,1727,1727,1724,1724,1721,1721,1721,1721,1721,1721,1721,1724,1727,1727,1730,1733,1736,1736,1736,1739,1739,1739,1739,1739,1739,1742,1742,1742,1742,1742,1742,1745,1742,1742,1742,1742,1739,1739,1739,1739,1736,1736,1736,1736,1733,1733,1733,1730,1730,1730,1730,1727,1727,1727,1727,1724,1724,1724,1724,1724,1721,1721,1721,1721,1718,1718,1718,1718,1715,1718,1718,1721,1721,1721,1721,1721,1721,1718,1718,1718,1718,1718,1718,1718,1718,1718,1718,1718,1718,1718,1721,1724,1724,1724,1724,1724,1724,1724,1724,1724,1724,1724,1724,1724,1724,1727,1727,1727,1727,1727,1724,1721,1718,1718,1715,1712,1709,1709,1706,1703,1700,1697,1694,1691,1688,1688,1685,1682,1679,1676,1673,1670,1670,1667,1664,1661,1661,1664,1664,1664,1667,1667,1667,1670,1670,1673,1676,1679,1679,1682,1685,1685,1688,1688,1691,1691,1691,1694,1694,1697,1697,1700,1703,1703,1706,1709,1709,1712,1715,1715,1718,1721,1721,1724,1727,1727,1730,1733,1733,1736,1739,1739,1742,1745,1745,1751,1757,1766,1772,1778,1784,1793,1796,1799,1799,1802,1808,1814,1817,1823,1829,1835,1838,1844,1850,1853,1856,1856,1859,1862,1865,1868,1874,1880,1886,1889,1895,1901,1907,1913,1919,1925,1925,1925,1922,1919,1913,1910,1904,1901,1895,1892,1886,1883,1877,1874,1871,1868,1868,1868,1868,1868,1868,1865,1865,1865,1862,1862,1862,1862,1862,1862,1859,1856,1856,1853,1850,1847,1844,1841,1838,1838,1838,1838,1838,1841,1841,1841,1844,1844,1847,1847,1850,1850,1853,1853,1856,1856,1859,1859,1859,1862,1862,1865,1868,1871,1877,1880,1886,1889,1895,1898,1904,1907,1913,1916,1922,1925,1931,1934,1934,1931,1928,1928,1925,1922,1922,1919,1913,1907,1901,1895,1892,1886,1880,1874,1871,1865,1862,1856,1850,1844,1838,1835,1832,1832,1829,1826,1823,1823,1820,1817,1814,1814,1811,1808,1808,1805,1802,1799,1799,1796,1793,1790,1790,1787,1784,1781,1781,1778,1775,1772,1772,1769,1766,1763,1763,1760,1757,1757,1754,1754,1754,1757,1757,1760,1760,1760,1763,1763,1763,1766,1766,1769,1769,1769,1772,1769,1766,1763,1763,1760,1757,1754,1751,1748,1745,1745,1742,1742,1739,1736,1736,1733,1733,1730,1727,1727,1724,1724,1721,1718,1718,1715,1715,1712,1712,1709,1706,1706,1709,1709,1709,1712,1712,1712,1715,1715,1715,1718,1721,1721,1724,1724,1727,1727,1730,1730,1733,1733,1736,1736,1739,1739,1742,1742,1742,1745,1745,1745,1748,1748,1748,1748,1748,1748,1748,1748,1748,1748,1748,1751,1751,1748,1745,1739,1736,1730,1727,1724,1718,1715,1709,1706,1700,1697,1691,1688,1682,1679,1673,1670,1664,1661,1658,1652,1649,1643,1640,1634,1631,1625,1622,1616,1613,1613,1610,1607,1604,1601,1595,1592,1589,1586,1583,1580,1577,1574,1571,1568,1562,1559,1556,1553,1550,1544,1541,1538,1535,1532,1526,1523,1520,1517,1511,1505,1499,1493,1490,1484,1478,1469,1463,1457,1451,1445,1442,1439,1436,1430,1427,1424,1418,1415,1409,1406,1400,1397,1394,1388,1385,1379,1376,1370,1367,1364,1358,1355,1349,1346,1340,1340,1340
1835,1829,1826,1823,1820,1814,1811,1808,1802,1799,1796,1790,1787,1784,1778,1772,1772,1772,1769,1769,1769,1766,1763,1760,1757,1754,1754,1754,1751,1751,1748,1748,1745,1745,1742,1742,1739,1739,1736,1736,1733,1733,1730,1730,1727,1727,1724,1724,1721,1721,1721,1721,1721,1721,1721,1721,1724,1727,1730,1730,1733,1736,1736,1736,1736,1739,1739,1739,1739,1739,1739,1742,1742,1742,1742,1742,1742,1742,1739,1739,1739,1739,1736,1736,1736,1736,1733,1733,1733,1730,1730,1730,1730,1727,1727,1727,1727,1724,1724,1724,1724,1721,1721,1721,1721,1718,1718,1718,1718,1715,1715,1715,1715,1715,1715,1718,1718,1718,1718,1715,1715,1715,1715,1715,1715,1715,1715,1715,1715,1715,1715,1715,1712,1715,1718,1718,1721,1721,1721,1721,1721,1721,1721,1721,1721,1724,1724,1724,1724,1724,1724,1724,1724,1724,1721,1718,1718,1715,1712,1709,1709,1706,1703,1700,1697,1694,1694,1691,1688,1685,1682,1679,1676,1676,1673,1670,1667,1664,1661,1658,1658,1661,1661,1661,1664,1664,1664,1667,1667,1670,1673,1676,1679,1679,1682,1682,1685,1685,1688,1688,1691,1691,1694,1694,1694,1697,1700,1700,1703,1706,1706,1709,1712,1712,1715,1718,1718,1721,1724,1724,1727,1730,1730,1733,1736,1736,1739,1742,1745,1751,1757,1766,1772,1778,1784,1793,1796,1796,1799,1799,1805,1808,1814,1820,1826,1829,1835,1841,1844,1847,1850,1850,1853,1856,1862,1868,1874,1880,1886,1892,1895,1901,1907,1913,1919,1925,1925,1925,1925,1919,1916,1910,1907,1901,1898,1892,1889,1883,1880,1874,1871,1868,1865,1868,1865,1865,1865,1862,1862,1862,1862,1862,1859,1859,1859,1859,1856,1856,1853,1850,1847,1844,1841,1838,1835,1835,1835,1835,1838,1838,1838,1838,1841,1841,1841,1844,1844,1847,1847,1850,1850,1853,1853,1856,1856,1859,1859,1862,1865,1868,1874,1877,1883,1886,1892,1895,1901,1904,1910,1913,1919,1925,1928,1934,1931,1931,1928,1928,1925,1922,1922,1919,1913,1907,1901,1895,1889,1883,1880,1874,1868,1865,1859,1853,1847,1841,1838,1832,1832,1829,1826,1823,1823,1820,1817,1817,1814,1811,1808,1808,1805,1802,1799,1799,1796,1793,1790,1790,1787,1784,1781,1781,1778,1775,1775,1772,1769,1766,1766,1763,1760,1757,1757,1754,1751,1751,1748,1751,1751,1754,1754,1754,1757,1757,1757,1760,1760,1763,1763,1763,1766,1763,1760,1757,1754,1754,1751,1748,1745,1742,1742,1739,1736,1736,1733,1733,1730,1730,1727,1724,1724,1721,1721,1718,1715,1715,1712,1712,1709,1706,1706,1703,1703,1700,1700,1700,1700,1703,1703,1706,1706,1706,1709,1709,1712,1712,1715,1718,1718,1721,1721,1724,1724,1727,1727,1730,1730,1733,1733,1736,1736,1739,1739,1742,1742,1742,1742,1745,1745,1745,1745,1745,1745,1745,1745,1748,1748,1745,1742,1736,1733,1727,1724,1721,1715,1712,1706,1703,1697,1694,1688,1685,1679,1676,1670,1667,1661,1658,1652,1649,1643,1640,1634,1631,1625,1622,1616,1613,1610,1607,1604,1601,1601,1598,1595,1589,1586,1583,1580,1577,1574,1571,1568,1565,1562,1556,1553,1550,1547,1544,1538,1535,1532,1529,1526,1520,1517,1511,1505,1499,1493,1487,1481,1475,1472,1463,1457,1451,1445,1439,1439,1436,1433,1427,1424,1418,1415,1412,1406,1403,1397,1394,1388,1385,1382,1376,1373,1367,1364,1358,1355,1352,1346,1343,1340,1340,1343
1835,1832,1829,1823,1820,1817,1814,1808,1805,1802,1796,1793,1790,1784,1778,1775,1775,1772,1772,1772,1769,1769,1766,1760,1757,1754,1754,1754,1751,1751,1748,1748,1745,1745,1742,1742,1739,1739,1736,1736,1733,1733,1730,1730,1727,1727,1724,1724,1721,1721,1721,1721,1721,1721,1721,1721,1721,1724,1727,1730,1733,1733,1736,1736,1736,1736,1736,1739,1739,1739,1739,1739,1739,1739,1742,1742,1739,1739,1739,1739,1736,1736,1736,1736,1733,1733,1733,1733,1730,1730,1730,1727,1727,1727,1727,1724,1724,1724,1724,1721,1721,1721,1721,1718,1718,1718,1718,1715,1715,1715,1715,1712,1712,1712,1712,1715,1715,1715,1712,1712,1712,1712,1712,1712,1712,1712,1712,1712,1712,1712,1709,1709,1709,1712,1712,1715,1718,1718,1718,1718,1718,1721,1721,1721,1721,1721,1721,1721,1721,1721,1721,1721,1721,1721,1718,1715,1715,1712,1709,1709,1706,1703,1700,1700,1697,1694,1691,1688,1685,1682,1682,1679,1676,1673,1670,1667,1664,1664,1661,1658,1655,1658,1658,1658,1661,1661,1661,1664,1664,1667,1670,1673,1676,1679,1679,1682,1682,1685,1685,1685,1688,1688,1691,1691,1694,1694,1697,1697,1700,1703,1703,1706,1709,1709,1712,1715,1715,1718,1721,1721,1724,1727,1727,1730,1733,1733,1736,1739,1742,1751,1757,1766,1772,1778,1784,1793,1793,1796,1796,1799,1802,1805,1811,1817,1820,1826,1832,1835,1838,1841,1844,1847,1853,1856,1862,1868,1874,1880,1886,1892,1898,1901,1907,1913,1919,1925,1925,1925,1925,1922,1916,1913,1907,1904,1898,1895,1889,1886,1880,1877,1871,1868,1865,1862,1862,1862,1862,1862,1862,1859,1859,1859,1859,1859,1856,1856,1853,1853,1850,1847,1844,1841,1838,1835,1835,1835,1835,1835,1835,1835,1838,1838,1838,1838,1841,1841,1841,1841,1844,1844,1847,1847,1850,1850,1853,1853,1856,1856,1859,1865,1868,1874,1877,1883,1886,1892,1895,1901,1907,1913,1916,1922,1928,1931,1931,1931,1928,1925,1925,1922,1919,1919,1913,1907,1898,1892,1886,1883,1877,1874,1868,1862,1856,1850,1844,1841,1835,1832,1829,1826,1823,1823,1820,1817,1817,1814,1811,1808,1808,1805,1802,1799,1799,1796,1793,1793,1790,1787,1784,1784,1781,1778,1775,1775,1772,1769,1766,1766,1763,1760,1757,1757,1754,1751,1748,1748,1748,1748,1745,1748,1748,1748,1751,1751,1751,1754,1754,1757,1757,1757,1760,1757,1754,1751,1748,1748,1745,1742,1739,1739,1736,1733,1733,1730,1730,1727,1724,1724,1721,1721,1718,1715,1715,1712,1712,1709,1709,1706,1703,1703,1700,1700,1697,1694,1694,1691,1694,1694,1694,1697,1697,1700,1700,1703,1703,1706,1706,1709,1712,1712,1715,1715,1718,1718,1721,1721,1724,1724,1727,1727,1730,1730,1733,1736,1739,1739,1739,1739,1739,1739,1742,1742,1742,1742,1742,1742,1739,1739,1739,1733,1730,1724,1721,1715,1712,1706,1703,1697,1694,1688,1685,1682,1676,1673,1667,1664,1658,1655,1649,1646,1640,1637,1631,1628,1622,1619,1613,1610,1604,1601,1598,1598,1595,1592,1589,1586,1583,1580,1577,1574,1571,1568,1565,1562,1559,1556,1550,1547,1544,1541,1538,1532,1529,1526,1523,1517,1511,1505,1499,1493,1487,1481,1475,1469,1463,1457,1451,1445,1439,1433,1433,1430,1427,1424,1421,1415,1412,1406,1403,1397,1394,1391,1385,1382,1376,1373,1367,1364,1361,1355,1352,1346,1343,1340,1340,1340,1343
1838,1835,1829,1826,1823,1817,1814,1811,1805,1802,1799,1796,1790,1784,1781,1775,1775,1775,1772,1772,1772,1769,1766,1763,1757,1754,1751,1751,1751,1751,1748,1748,1745,1745,1742,1742,1739,1739,1736,1736,1733,1733,1730,1730,1727,1727,1724,1724,1721,1721,1721,1721,1721,1721,1721,1721,1721,1721,1724,1727,1730,1733,1733,1736,1736,1736,1736,1736,1736,1736,1739,1739,1739,1739,1739,1739,1739,1739,1736,1736,1736,1736,1733,1733,1733,1733,1730,1730,1730,1727,1727,1727,1727,1724,1724,1724,1724,1721,1721,1721,1721,1718,1718,1718,1718,1715,1715,1715,1712,1712,1712,1712,1712,1709,1709,1712,1709,1709,1709,1709,1709,1709,1709,1709,1709,1709,1709,1709,1709,1706,1706,1706,1706,1706,1709,1709,1712,1715,1715,1718,1718,1718,1718,1718,1718,1718,1718,1718,1718,1718,1718,1718,1718,1718,1715,1715,1712,1709,1706,1706,1703,1700,1700,1697,1694,1691,1688,1688,1685,1682,1679,1676,1673,1670,1670,1667,1664,1661,1658,1655,1652,1655,1655,1655,1658,1658,1658,1661,1664,1664,1667,1670,1673,1676,1676,1679,1679,1682,1682,1685,1685,1688,1688,1691,1691,1691,1694,1694,1697,1700,1700,1703,1706,1706,1709,1712,1712,1715,1718,1718,1721,1724,1724,1727,1730,1730,1733,1736,1742,1748,1757,1763,1772,1778,1784,1793,1793,1796,1796,1796,1799,1802,1808,1811,1817,1823,1826,1829,1832,1835,1841,1847,1853,1859,1865,1868,1874,1880,1886,1892,1898,1904,1907,1913,1919,1925,1925,1925,1925,1922,1919,1913,1910,1904,1901,1895,1892,1886,1883,1877,1874,1868,1862,1862,1862,1859,1859,1859,1859,1859,1859,1856,1856,1856,1856,1853,1850,1850,1847,1844,1841,1838,1835,1832,1832,1832,1832,1832,1832,1835,1835,1835,1835,1838,1838,1838,1838,1841,1841,1841,1841,1844,1844,1847,1847,1850,1850,1853,1856,1862,1865,1871,1874,1880,1883,1889,1895,1901,1904,1910,1916,1922,1928,1931,1931,1928,1928,1925,1922,1922,1919,1916,1910,1904,1898,1892,1886,1880,1874,1871,1865,1859,1853,1850,1844,1838,1832,1829,1826,1826,1823,1820,1817,1817,1814,1811,1808,1808,1805,1802,1802,1799,1796,1793,1793,1790,1787,1784,1784,1781,1778,1775,1775,1772,1769,1766,1766,1763,1760,1757,1757,1754,1751,1751,1748,1745,1745,1745,1745,1745,1742,1742,1745,1745,1748,1748,1748,1751,1751,1751,1754,1751,1748,1745,1742,1739,1739,1736,1733,1733,1730,1730,1727,1727,1724,1721,1721,1718,1718,1715,1712,1712,1709,1709,1706,1703,1703,1700,1700,1697,1697,1694,1691,1691,1688,1688,1685,1685,1688,1688,1691,1691,1694,1694,1697,1697,1700,1700,1703,1706,1706,1709,1709,1712,1712,1715,1715,1718,1718,1721,1721,1724,1727,1730,1730,1733,1736,1736,1736,1736,1736,1736,1736,1736,1736,1733,1733,1730,1730,1730,1727,1721,1718,1712,1709,1703,1700,1694,1691,1685,1682,1676,1673,1667,1664,1658,1655,1649,1646,1640,1637,1631,1628,1622,1619,1613,1610,1604,1601,1595,1595,1592,1589,1586,1583,1583,1580,1577,1574,1571,1568,1565,1562,1559,1556,1553,1550,1544,1541,1538,1535,1532,1526,1523,1517,1511,1505,1499,1493,1487,1481,1475,1469,1463,1457,1451,1445,1439,1433,1430,1427,1424,1424,1421,1415,1412,1409,1403,1400,1394,1391,1385,1382,1379,1373,1370,1364,1361,1355,1352,1349,1343,1340,1340,1340,1343,1343
1838,1835,1832,1826,1823,1820,1817,1811,1808,1805,1799,1796,1790,1787,1781,1778,1778,1775,1775,1775,1772,1769,1766,1763,1760,1754,1751,1748,1751,1751,1748,1748,1745,1745,1742,1742,1739,1739,1736,1736,1733,1733,1730,1730,1727,1727,1724,1724,1721,1721,1721,1721,1721,1721,1721,1721,1721,1721,1724,1724,1727,1730,1733,1733,1733,1733,1736,1736,1736,1736,1736,1736,1739,1739,1739,1739,1736,1736,1736,1736,1733,1733,1733,1733,1730,1730,1730,1730,1727,1727,1727,1724,1724,1724,1724,1721,1721,1721,1721,1718,1718,1718,1718,1715,1715,1715,1712,1712,1712,1712,1709,1709,1709,1709,1706,1706,1706,1706,1706,1706,1706,1706,1706,1706,1706,1706,1706,1703,1703,1703,1703,1703,1703,1703,1703,1706,1709,1709,1712,1715,1715,1715,1715,1715,1715,1715,1715,1715,1715,1715,1715,1715,1718,1715,1715,1712,1709,1706,1706,1703,1700,1697,1697,1694,1691,1691,1688,1685,1682,1679,1676,1673,1673,1670,1667,1664,1661,1658,1655,1655,1652,1652,1652,1652,1655,1655,1655,1658,1661,1664,1667,1667,1670,1673,1676,1676,1679,1679,1679,1682,1682,1685,1685,1688,1688,1691,1691,1694,1694,1697,1697,1700,1703,1703,1706,1709,1709,1712,1715,1715,1718,1721,1721,1724,1727,1727,1730,1736,1739,1748,1757,1763,1772,1778,1784,1793,1793,1796,1796,1796,1799,1799,1802,1808,1814,1817,1820,1823,1829,1835,1841,1847,1853,1859,1865,1871,1874,1880,1886,1892,1898,1904,1910,1913,1919,1925,1925,1925,1925,1925,1919,1916,1910,1907,1901,1898,1892,1889,1883,1880,1874,1868,1865,1859,1859,1859,1859,1859,1856,1856,1856,1856,1856,1853,1853,1850,1847,1847,1844,1841,1838,1835,1832,1832,1832,1832,1829,1832,1832,1832,1832,1835,1835,1835,1835,1838,1838,1838,1838,1841,1841,1841,1841,1844,1844,1844,1847,1847,1853,1856,1862,1868,1871,1877,1883,1889,1892,1898,1904,1910,1916,1919,1925,1928,1928,1928,1925,1925,1922,1919,1919,1916,1910,1904,1898,1892,1883,1877,1874,1868,1862,1856,1853,1847,1841,1835,1829,1826,1826,1823,1820,1817,1817,1814,1811,1808,1808,1805,1802,1802,1799,1796,1793,1793,1790,1787,1784,1784,1781,1778,1775,1775,1772,1769,1769,1766,1763,1760,1760,1757,1754,1751,1751,1748,1745,1745,1745,1742,1742,1742,1742,1742,1739,1739,1742,1742,1742,1745,1745,1745,1748,1745,1742,1739,1736,1736,1733,1730,1730,1727,1727,1724,1721,1721,1718,1718,1715,1712,1712,1709,1709,1706,1706,1703,1700,1700,1697,1697,1694,1691,1691,1688,1688,1685,1682,1682,1679,1679,1679,1682,1682,1685,1685,1688,1688,1691,1691,1694,1694,1697,1697,1700,1703,1703,1706,1706,1709,1709,1712,1712,1715,1715,1718,1721,1724,1727,1730,1730,1733,1733,1733,1733,1733,1730,1727,1727,1724,1724,1724,1721,1721,1718,1712,1709,1703,1700,1694,1691,1688,1682,1679,1673,1670,1664,1661,1655,1652,1646,1643,1637,1634,1628,1625,1619,1616,1610,1607,1601,1598,1592,1589,1586,1583,1583,1580,1577,1574,1571,1571,1568,1565,1562,1559,1556,1553,1550,1547,1544,1538,1535,1532,1529,1523,1517,1511,1505,1499,1493,1487,1481,1475,1469,1463,1457,1451,1445,1439,1433,1427,1424,1421,1421,1418,1415,1412,1409,1403,1400,1394,1391,1388,1382,1379,1373,1370,1364,1361,1358,1352,1349,1343,1340,1340,1340,1340,1343,1343
1841,1838,1832,1829,1826,1820,1817,1814,1811,1805,1802,1799,1793,1787,1781,1781,1778,1778,1775,1775,1772,1769,1766,1763,1760,1757,1751,1748,1748,1748,1748,1748,1745,1745,1742,1742,1739,1739,1736,1736,1733,1733,1730,1730,1727,1727,1724,1724,1721,1721,1721,1721,1721,1721,1721,1721,1721,1721,1721,1724,1727,1727,1730,1733,1733,1733,1733,1733,1736,1736,1736,1736,1736,1736,1736,1736,1736,1736,1733,1733,1733,1733,1730,1730,1730,1730,1727,1727,1727,1724,1724,1724,1724,1721,1721,1721,1721,1718,1718,1718,1718,1715,1715,1715,1715,1712,1712,1712,1709,1709,1709,1709,1706,1706,1706,1703,1703,1703,1703,1703,1703,1703,1703,1703,1703,1700,1700,1700,1700,1700,1700,1700,1700,1700,1700,1703,1703,1706,1709,1709,1712,1712,1712,1712,1712,1712,1712,1712,1715,1715,1715,1715,1715,1712,1712,1709,1706,1706,1703,1700,1697,1697,1694,1691,1688,1688,1685,1682,1679,1679,1676,1673,1670,1667,1664,1661,1661,1658,1655,1652,1649,1649,1649,1649,1652,1652,1652,1655,1658,1661,1664,1667,1667,1670,1673,1673,1676,1676,1679,1679,1682,1682,1685,1685,1685,1688,1688,1691,1691,1694,1694,1697,1700,1700,1703,1706,1706,1709,1712,1712,1715,1718,1718,1721,1724,1724,1727,1733,1739,1748,1754,1763,1769,1778,1784,1793,1793,1796,1796,1796,1799,1799,1799,1805,1808,1814,1820,1826,1829,1835,1841,1847,1853,1859,1865,1871,1877,1880,1886,1892,1898,1904,1910,1916,1919,1925,1925,1925,1925,1925,1922,1916,1913,1907,1904,1898,1895,1889,1883,1880,1874,1871,1865,1859,1856,1856,1856,1856,1856,1856,1853,1853,1853,1853,1850,1847,1847,1844,1841,1838,1835,1832,1829,1829,1829,1829,1829,1829,1829,1829,1832,1832,1832,1832,1835,1835,1835,1835,1838,1838,1838,1838,1841,1841,1841,1841,1844,1844,1850,1853,1859,1865,1871,1877,1880,1886,1892,1898,1901,1907,1913,1919,1925,1925,1925,1928,1925,1922,1922,1919,1919,1916,1910,1901,1895,1889,1883,1877,1871,1865,1862,1856,1850,1844,1838,1832,1829,1826,1823,1820,1817,1817,1814,1811,1811,1808,1805,1802,1802,1799,1796,1793,1793,1790,1787,1784,1784,1781,1778,1778,1775,1772,1769,1769,1766,1763,1760,1760,1757,1754,1751,1751,1748,1745,1742,1742,1742,1742,1739,1739,1739,1739,1739,1739,1736,1736,1736,1739,1739,1739,1739,1739,1736,1733,1730,1730,1727,1727,1724,1724,1721,1718,1718,1715,1715,1712,1709,1709,1706,1706,1703,1700,1700,1697,1697,1694,1694,1691,1688,1688,1685,1685,1682,1682,1679,1676,1676,1673,1673,1673,1673,1676,1679,1679,1682,1682,1685,1685,1688,1688,1691,1691,1694,1697,1697,1700,1700,1703,1703,1706,1706,1709,1712,1715,1718,1721,1724,1724,1727,1727,1727,1727,1724,1724,1721,1718,1718,1718,1715,1715,1712,1712,1709,1706,1700,1697,1691,1688,1682,1679,1673,1670,1664,1661,1655,1652,1646,1643,1637,1634,1628,1625,1619,1616,1610,1607,1601,1598,1592,1589,1583,1580,1580,1577,1574,1571,1568,1568,1565,1562,1559,1559,1556,1553,1550,1547,1544,1541,1538,1532,1529,1523,1517,1511,1505,1499,1493,1487,1481,1475,1469,1463,1457,1451,1445,1439,1433,1427,1421,1418,1415,1415,1412,1412,1409,1406,1400,1397,1391,1388,1382,1379,1376,1370,1367,1361,1358,1352,1349,1346,1340,1340,1340,1340,1343,1343,1343
1841,1838,1835,1832,1826,1823,1820,1814,1811,1808,1802,1799,1793,1790,1784,1781,1781,1778,1778,1778,1772,1769,1766,1763,1760,1757,1754,1748,1745,1745,1748,1748,1745,1745,1742,1742,1739,1739,1736,1736,1733,1733,1730,1730,1727,1727,1724,1724,1721,1721,1721,1721,1721,1721,1721,1721,1721,1721,1721,1721,1724,1727,1730,1730,1733,1733,1733,1733,1733,1733,1733,1736,1736,1736,1736,1736,1733,1733,1733,1733,1730,1730,1730,1730,1727,1727,1727,1727,1724,1724,1724,1721,1721,1721,1721,1718,1718,1718,1718,1715,1715,1715,1715,1712,1712,1712,1709,1709,1709,1709,1706,1706,1706,1703,1703,1703,1700,1700,1700,1700,1700,1700,1700,1700,1697,1697,1697,1697,1697,1697,1697,1697,1697,1697,1697,1697,1700,1703,1703,1706,1709,1709,1709,1709,1712,1712,1712,1712,1712,1712,1712,1712,1712,1712,1709,1706,1703,1703,1700,1697,1697,1694,1691,1688,1688,1685,1682,1679,1679,1676,1673,1670,1667,1667,1664,1661,1658,1655,1652,1649,1649,1646,1646,1646,1649,1649,1649,1652,1655,1658,1661,1664,1667,1667,1670,1673,1673,1673,1676,1676,1679,1679,1682,1682,1685,1685,1688,1688,1691,1691,1691,1694,1697,1697,1700,1703,1703,1706,1709,1709,1712,1715,1715,1718,1721,1721,1727,1733,1739,1745,1754,1760,1769,1775,1784,1790,1790,1793,1793,1796,1796,1796,1799,1802,1808,1814,1820,1826,1832,1835,1841,1847,1853,1859,1865,1871,1877,1883,1886,1892,1898,1904,1910,1916,1922,1925,1925,1925,1925,1925,1922,1919,1913,1910,1904,1901,1895,1889,1886,1880,1877,1871,1865,1862,1856,1856,1853,1853,1853,1853,1853,1853,1850,1850,1847,1844,1844,1841,1838,1835,1832,1829,1829,1829,1829,1829,1826,1826,1826,1829,1829,1829,1832,1832,1832,1832,1835,1835,1835,1835,1838,1838,1838,1838,1841,1841,1841,1844,1847,1853,1859,1865,1868,1874,1880,1886,1889,1895,1901,1907,1913,1916,1922,1925,1925,1925,1925,1922,1922,1919,1916,1913,1907,1901,1895,1889,1883,1877,1871,1865,1859,1853,1847,1841,1835,1832,1826,1823,1820,1820,1817,1814,1811,1811,1808,1805,1802,1802,1799,1796,1793,1793,1790,1787,1787,1784,1781,1778,1778,1775,1772,1769,1769,1766,1763,1760,1760,1757,1754,1751,1751,1748,1745,1745,1742,1739,1739,1739,1739,1739,1736,1736,1736,1736,1736,1736,1733,1733,1733,1733,1733,1733,1730,1727,1727,1724,1724,1721,1718,1718,1715,1715,1712,1712,1709,1706,1706,1703,1703,1700,1700,1697,1697,1694,1691,1691,1688,1688,1685,1685,1682,1679,1679,1676,1676,1673,1673,1670,1670,1667,1667,1670,1670,1673,1673,1676,1676,1679,1679,1682,1682,1685,1685,1688,1691,1691,1694,1694,1697,1697,1700,1703,1706,1706,1709,1712,1715,1718,1721,1721,1721,1718,1718,1715,1715,1712,1709,1709,1709,1706,1706,1706,1703,1700,1697,1691,1688,1685,1679,1676,1670,1667,1661,1658,1652,1649,1643,1640,1634,1631,1625,1622,1616,1613,1607,1604,1598,1595,1589,1586,1580,1577,1574,1571,1568,1565,1565,1562,1559,1556,1556,1553,1550,1547,1544,1544,1541,1538,1532,1526,1523,1517,1511,1505,1499,1493,1487,1481,1475,1469,1463,1457,1451,1445,1439,1433,1427,1421,1415,1412,1412,1409,1409,1406,1403,1400,1397,1391,1388,1385,1379,1376,1370,1367,1361,1358,1355,1349,1346,1340,1340,1340,1340,1340,1343,1343,1343
1844,1841,1835,1832,1829,1826,1820,1817,1814,1808,1805,1799,1796,1790,1784,1784,1781,1781,1781,1778,1775,1769,1766,1763,1760,1757,1754,1751,1745,1745,1745,1745,1745,1745,1742,1742,1739,1739,1736,1736,1733,1733,1730,1730,1727,1727,1724,1724,1721,1721,1721,1721,1721,1721,1721,1721,1721,1721,1721,1721,1721,1724,1727,1730,1730,1730,1730,1733,1733,1733,1733,1733,1733,1733,1733,1733,1733,1733,1730,1730,1730,1730,1727,1727,1727,1727,1724,1724,1724,1721,1721,1721,1721,1718,1718,1718,1718,1715,1715,1715,1715,1712,1712,1712,1712,1709,1709,1709,1706,1706,1706,1706,1703,1703,1700,1700,1700,1697,1697,1697,1697,1697,1694,1694,1694,1694,1694,1694,1694,1694,1694,1694,1694,1694,1694,1694,1697,1697,1700,1703,1703,1706,1706,1709,1709,1709,1709,1709,1709,1709,1709,1709,1709,1709,1706,1703,1703,1700,1697,1694,1694,1691,1688,1688,1685,1682,1679,1679,1676,1673,1670,1670,1667,1664,1661,1658,1655,1655,1652,1649,1646,1643,1643,1643,1646,1646,1649,1649,1652,1655,1658,1661,1664,1667,1667,1670,1670,1673,1673,1676,1676,1679,1679,1679,1682,1682,1685,1685,1688,1688,1691,1691,1694,1694,1697,1700,1700,1703,1706,1706,1709,1712,1712,1715,1718,1721,1727,1730,1736,1745,1751,1760,1769,1775,1781,1787,1787,1790,1790,1790,1793,1793,1796,1802,1808,1814,1820,1826,1832,1838,1844,1847,1853,1859,1865,1871,1877,1883,1889,1892,1898,1904,1910,1916,1922,1925,1925,1925,1925,1925,1925,1919,1916,1910,1904,1901,1895,1892,1886,1883,1877,1871,1868,1862,1856,1853,1853,1853,1853,1850,1850,1850,1850,1847,1844,1841,1841,1838,1835,1832,1829,1829,1826,1826,1826,1826,1826,1826,1826,1826,1826,1829,1829,1829,1829,1832,1832,1832,1832,1835,1835,1835,1835,1838,1838,1838,1841,1841,1847,1853,1856,1862,1868,1874,1877,1883,1889,1895,1901,1904,1910,1916,1922,1922,1922,1922,1925,1922,1919,1919,1916,1913,1907,1901,1895,1889,1880,1874,1868,1862,1856,1850,1844,1841,1835,1829,1823,1820,1820,1817,1814,1811,1811,1808,1805,1802,1802,1799,1796,1796,1793,1790,1787,1787,1784,1781,1778,1778,1775,1772,1769,1769,1766,1763,1763,1760,1757,1754,1754,1751,1748,1745,1745,1742,1739,1739,1739,1736,1736,1736,1736,1736,1733,1733,1733,1733,1733,1733,1730,1730,1730,1727,1727,1724,1721,1721,1718,1718,1715,1715,1712,1712,1709,1706,1706,1703,1703,1700,1700,1697,1694,1694,1691,1691,1688,1688,1685,1685,1682,1679,1679,1676,1676,1673,1673,1670,1670,1667,1664,1664,1664,1664,1664,1664,1667,1667,1670,1670,1673,1673,1676,1676,1679,1679,1682,1682,1685,1688,1688,1691,1691,1694,1697,1700,1703,1706,1709,1712,1712,1715,1712,1712,1709,1709,1706,1703,1703,1703,1700,1700,1700,1697,1697,1697,1694,1688,1685,1679,1676,1670,1667,1661,1658,1652,1649,1643,1640,1634,1631,1625,1622,1619,1613,1610,1604,1601,1595,1592,1586,1580,1577,1571,1568,1565,1562,1562,1559,1556,1553,1553,1550,1547,1544,1541,1541,1538,1535,1532,1526,1520,1514,1508,1505,1499,1493,1487,1481,1475,1469,1463,1457,1451,1445,1439,1433,1427,1421,1415,1409,1409,1406,1403,1403,1400,1400,1397,1394,1388,1385,1379,1376,1373,1367,1364,1358,1355,1349,1346,1343,1340,1340,1340,1340,1343,1343,1343,1340
1847,1841,1838,1835,1829,1826,1823,1817,1814,1811,1805,1802,1796,1790,1787,1784,1784,1781,1781,1778,1775,1772,1766,1763,1760,1757,1754,1751,1748,1742,1742,1742,1745,1745,1742,1742,1739,1739,1736,1736,1733,1733,1730,1730,1727,1727,1724,1724,1721,1721,1718,1718,1721,1721,1721,1721,1721,1721,1721,1721,1721,1721,1724,1727,1730,1730,1730,1730,1730,1733,1733,1733,1733,1733,1733,1733,1730,1730,1730,1730,1727,1727,1727,1727,1724,1724,1724,1724,1721,1721,1721,1718,1718,1718,1718,1715,1715,1715,1715,1712,1712,1712,1712,1709,1709,1709,1706,1706,1706,1706,1703,1703,1700,1700,1697,1697,1697,1694,1694,1694,1694,1691,1691,1691,1691,1691,1691,1691,1691,1691,1691,1691,1691,1688,1688,1691,1691,1694,1697,1697,1700,1700,1703,1706,1706,1706,1706,1706,1706,1706,1706,1706,1706,1706,1703,1703,1700,1697,1694,1694,1691,1688,1685,1685,1682,1679,1679,1676,1673,1670,1670,1667,1664,1661,1658,1658,1655,1652,1649,1646,1643,1640,1640,1640,1643,1643,1646,1649,1652,1652,1655,1658,1661,1664,1667,1667,1670,1670,1670,1673,1673,1676,1676,1679,1679,1682,1682,1685,1685,1685,1688,1688,1691,1691,1694,1697,1697,1700,1703,1703,1706,1709,1709,1712,1715,1718,1724,1730,1736,1745,1751,1760,1766,1775,1778,1781,1784,1784,1787,1787,1790,1787,1793,1799,1805,1811,1817,1823,1829,1835,1841,1847,1853,1859,1865,1871,1877,1883,1889,1895,1898,1904,1910,1916,1922,1925,1925,1925,1925,1925,1925,1919,1916,1910,1907,1901,1898,1892,1889,1883,1877,1874,1868,1862,1859,1853,1850,1850,1850,1850,1850,1847,1847,1844,1841,1838,1838,1835,1832,1829,1826,1826,1826,1826,1826,1823,1823,1823,1823,1823,1826,1826,1826,1826,1829,1829,1829,1829,1832,1832,1832,1835,1835,1835,1835,1838,1841,1841,1847,1850,1856,1862,1865,1871,1877,1883,1889,1892,1898,1904,1910,1913,1919,1922,1922,1922,1922,1922,1919,1916,1916,1913,1907,1898,1892,1886,1880,1874,1871,1862,1856,1850,1844,1838,1832,1826,1820,1820,1817,1814,1811,1811,1808,1805,1805,1802,1799,1796,1796,1793,1790,1787,1787,1784,1781,1778,1778,1775,1772,1772,1769,1766,1763,1763,1760,1757,1754,1754,1751,1748,1745,1745,1742,1739,1736,1736,1736,1736,1736,1733,1733,1733,1733,1733,1730,1730,1730,1730,1727,1727,1727,1724,1724,1721,1718,1718,1715,1715,1712,1709,1709,1706,1706,1703,1703,1700,1700,1697,1694,1694,1691,1691,1688,1688,1685,1685,1682,1679,1679,1676,1676,1673,1673,1670,1670,1667,1664,1664,1661,1661,1658,1661,1661,1661,1661,1661,1664,1664,1664,1667,1667,1670,1670,1673,1673,1676,1676,1679,1682,1682,1685,1688,1688,1691,1694,1697,1703,1703,1706,1706,1706,1703,1703,1700,1700,1697,1697,1694,1694,1691,1691,1691,1688,1688,1688,1685,1679,1676,1673,1667,1664,1658,1655,1649,1646,1640,1637,1631,1628,1622,1619,1613,1610,1604,1601,1595,1592,1586,1583,1577,1574,1568,1565,1562,1559,1556,1553,1550,1550,1547,1544,1541,1538,1538,1535,1532,1529,1526,1520,1514,1508,1502,1496,1490,1484,1478,1475,1469,1463,1457,1451,1445,1439,1433,1427,1421,1415,1409,1403,1403,1400,1400,1397,1394,1394,1391,1388,1385,1382,1376,1373,1367,1364,1358,1355,1352,1346,1343,1340,1340,1340,1340,1340,1343,1340,1340,1337
1847,1844,1841,1835,1832,1829,1823,1820,1817,1811,1808,1802,1796,1793,1787,1787,1784,1784,1781,1778,1775,1772,1769,1763,1760,1757,1754,1751,1748,1745,1739,1742,1742,1742,1742,1742,1739,1739,1736,1736,1733,1733,1730,1730,1727,1727,1724,1724,1721,1721,1718,1718,1718,1721,1721,1721,1721,1721,1721,1721,1721,1721,1721,1724,1727,1730,1730,1730,1730,1730,1730,1730,1730,1730,1730,1730,1730,1730,1727,1727,1727,1727,1724,1724,1724,1724,1721,1721,1721,1718,1718,1718,1718,1715,1715,1715,1715,1712,1712,1712,1712,1709,1709,1709,1709,1706,1706,1706,1703,1703,1700,1700,1697,1697,1697,1694,1694,1694,1691,1691,1691,1691,1688,1688,1688,1688,1688,1688,1688,1688,1688,1685,1685,1685,1685,1685,1688,1688,1691,1694,1694,1697,1700,1700,1703,1703,1703,1703,1703,1703,1703,1706,1706,1703,1700,1700,1697,1694,1694,1691,1688,1685,1685,1682,1679,1676,1676,1673,1670,1670,1667,1664,1661,1661,1658,1655,1652,1649,1646,1646,1643,1640,1637,1637,1640,1640,1643,1646,1649,1652,1652,1655,1658,1661,1664,1664,1667,1667,1670,1670,1673,1673,1673,1676,1676,1679,1679,1682,1682,1685,1685,1688,1688,1688,1691,1694,1694,1697,1700,1700,1703,1706,1706,1709,1712,1718,1724,1730,1736,1742,1751,1757,1766,1772,1775,1778,1781,1781,1784,1784,1784,1787,1793,1799,1805,1811,1817,1823,1829,1835,1841,1847,1853,1859,1865,1871,1877,1883,1889,1895,1901,1904,1910,1916,1922,1925,1925,1925,1925,1925,1925,1922,1916,1913,1907,1904,1898,1895,1889,1886,1880,1874,1868,1865,1859,1853,1850,1847,1847,1847,1847,1847,1844,1841,1838,1835,1835,1832,1829,1826,1826,1823,1823,1823,1823,1823,1823,1823,1823,1823,1823,1823,1826,1826,1826,1826,1829,1829,1829,1829,1832,1832,1832,1832,1835,1838,1838,1841,1847,1850,1856,1859,1865,1871,1874,1880,1886,1892,1898,1901,1907,1913,1919,1919,1919,1919,1919,1919,1919,1916,1913,1910,1904,1898,1892,1886,1880,1874,1871,1865,1856,1847,1841,1835,1829,1823,1820,1817,1814,1811,1811,1808,1805,1805,1802,1799,1796,1796,1793,1790,1787,1787,1784,1781,1781,1778,1775,1772,1772,1769,1766,1763,1763,1760,1757,1754,1754,1751,1748,1745,1745,1742,1739,1739,1736,1736,1733,1733,1733,1733,1733,1730,1730,1730,1727,1727,1727,1724,1724,1724,1724,1721,1721,1718,1715,1715,1712,1712,1709,1706,1706,1703,1703,1700,1700,1697,1694,1694,1691,1691,1688,1688,1685,1685,1682,1679,1679,1676,1676,1673,1673,1670,1667,1667,1664,1664,1661,1661,1658,1658,1655,1655,1655,1655,1655,1655,1658,1658,1658,1661,1661,1661,1664,1664,1667,1667,1670,1670,1673,1676,1676,1679,1682,1685,1688,1691,1694,1697,1697,1697,1697,1697,1694,1694,1691,1691,1688,1688,1685,1685,1685,1682,1682,1682,1679,1679,1676,1673,1667,1664,1658,1655,1649,1646,1640,1637,1631,1628,1625,1619,1616,1610,1607,1601,1598,1592,1589,1583,1580,1574,1571,1565,1562,1556,1553,1550,1547,1547,1544,1541,1538,1538,1535,1532,1529,1526,1523,1517,1514,1508,1502,1496,1490,1484,1478,1472,1466,1460,1454,1448,1442,1439,1433,1427,1421,1415,1409,1403,1400,1397,1394,1394,1391,1391,1388,1385,1385,1382,1376,1373,1370,1364,1361,1355,1352,1346,1343,1340,1340,1340,1340,1340,1340,1340,1337,1337,1334
1850,1844,1841,1838,1832,1829,1826,1823,1817,1814,1808,1802,1799,1793,1790,1787,1787,1784,1781,1778,1775,1772,1769,1766,1760,1757,1754,1751,1748,1745,1742,1739,1739,1739,1739,1742,1739,1739,1736,1736,1733,1733,1730,1730,1727,1727,1724,1724,1721,1721,1718,1718,1718,1718,1721,1721,1721,1721,1721,1721,1721,1721,1721,1724,1724,1727,1727,1727,1730,1730,1730,1730,1730,1730,1730,1730,1727,1727,1727,1727,1724,1724,1724,1724,1721,1721,1721,1721,1718,1718,1718,1715,1715,1715,1715,1712,1712,1712,1712,1709,1709,1709,1709,1706,1706,1706,1703,1703,1700,1700,1700,1697,1697,1694,1694,1691,1691,1691,1691,1688,1688,1688,1688,1685,1685,1685,1685,1685,1685,1682,1682,1682,1682,1682,1682,1682,1682,1685,1688,1688,1691,1694,1694,1697,1700,1700,1700,1703,1703,1703,1703,1703,1703,1700,1700,1697,1694,1691,1691,1688,1685,1685,1682,1679,1676,1676,1673,1670,1667,1667,1664,1661,1658,1658,1655,1652,1652,1649,1646,1643,1640,1637,1634,1634,1637,1637,1640,1643,1646,1649,1652,1655,1655,1658,1661,1664,1664,1664,1667,1667,1670,1670,1673,1673,1676,1676,1679,1679,1679,1682,1682,1685,1685,1688,1688,1691,1694,1694,1697,1700,1700,1703,1706,1706,1712,1718,1724,1727,1733,1742,1748,1757,1763,1766,1772,1775,1775,1778,1778,1778,1778,1784,1790,1796,1802,1808,1814,1820,1826,1832,1838,1844,1850,1856,1865,1871,1877,1883,1889,1895,1901,1907,1910,1916,1922,1925,1925,1925,1925,1925,1925,1922,1919,1913,1910,1904,1901,1895,1892,1886,1880,1874,1871,1865,1859,1856,1850,1847,1847,1847,1844,1844,1841,1838,1835,1835,1832,1829,1826,1823,1823,1823,1823,1823,1823,1820,1820,1820,1820,1820,1820,1823,1823,1823,1823,1826,1826,1826,1826,1829,1829,1829,1832,1832,1835,1835,1838,1841,1844,1850,1856,1859,1865,1868,1874,1880,1886,1889,1895,1901,1907,1910,1916,1916,1919,1919,1919,1919,1919,1916,1913,1910,1904,1898,1892,1883,1880,1877,1871,1865,1856,1850,1841,1832,1829,1823,1817,1814,1814,1811,1808,1805,1805,1802,1799,1796,1796,1793,1790,1787,1787,1784,1781,1781,1778,1775,1772,1772,1769,1766,1763,1763,1760,1757,1754,1754,1751,1748,1748,1745,1742,1739,1739,1736,1733,1733,1733,1733,1730,1730,1730,1727,1727,1727,1724,1724,1724,1721,1721,1721,1718,1718,1718,1715,1712,1712,1709,1709,1706,1703,1703,1700,1700,1697,1694,1694,1691,1691,1688,1688,1685,1682,1682,1679,1679,1676,1676,1673,1673,1670,1667,1667,1664,1664,1661,1661,1658,1658,1655,1652,1652,1649,1652,1652,1652,1652,1652,1652,1652,1655,1655,1655,1658,1658,1661,1661,1661,1664,1664,1667,1670,1670,1676,1679,1682,1685,1688,1688,1688,1691,1691,1688,1688,1685,1685,1682,1682,1679,1679,1679,1676,1676,1676,1673,1673,1670,1670,1667,1664,1661,1655,1652,1646,1643,1637,1634,1628,1625,1619,1616,1610,1607,1601,1598,1592,1589,1583,1580,1574,1571,1565,1562,1556,1553,1547,1544,1544,1541,1538,1535,1535,1532,1529,1526,1523,1520,1517,1511,1505,1499,1493,1487,1484,1478,1472,1466,1460,1454,1448,1442,1436,1430,1424,1418,1412,1406,1403,1397,1394,1391,1391,1388,1385,1385,1382,1382,1379,1376,1373,1370,1364,1361,1355,1352,1349,1343,1340,1340,1340,1340,1340,1340,1337,1337,1334,1334,1331
1850,1847,1844,1838,1835,1832,1826,1823,1820,1814,1811,1805,1799,1796,1790,1790,1787,1787,1781,1778,1775,1772,1769,1766,1763,1757,1754,1751,1748,1745,1742,1739,1736,1736,1739,1739,1739,1739,1736,1736,1733,1733,1730,1730,1727,1727,1724,1724,1721,1721,1718,1718,1718,1718,1718,1721,1721,1721,1721,1721,1721,1721,1721,1721,1724,1727,1727,1727,1727,1727,1730,1730,1727,1727,1727,1727,1727,1727,1724,1724,1724,1724,1721,1721,1721,1721,1718,1718,1718,1715,1715,1715,1715,1712,1712,1712,1712,1709,1709,1709,1709,1706,1706,1706,1703,1703,1703,1700,1700,1697,1697,1694,1694,1691,1691,1688,1688,1688,1688,1685,1685,1685,1685,1685,1682,1682,1682,1682,1679,1679,1679,1679,1679,1679,1679,1679,1679,1682,1682,1685,1688,1688,1691,1694,1694,1697,1700,1700,1700,1700,1700,1700,1700,1700,1697,1694,1691,1691,1688,1685,1682,1682,1679,1676,1676,1673,1670,1667,1667,1664,1661,1658,1658,1655,1652,1649,1649,1646,1643,1640,1637,1637,1634,1631,1634,1634,1637,1640,1643,1646,1649,1652,1655,1655,1658,1661,1661,1664,1664,1667,1667,1670,1670,1670,1673,1673,1676,1676,1679,1679,1682,1682,1685,1685,1685,1688,1691,1691,1694,1697,1697,1700,1703,1706,1709,1715,1721,1727,1733,1742,1748,1757,1760,1763,1769,1769,1772,1772,1772,1772,1778,1784,1790,1796,1802,1808,1814,1820,1826,1832,1838,1844,1850,1856,1862,1868,1874,1880,1886,1892,1898,1904,1910,1916,1922,1925,1925,1925,1925,1925,1925,1925,1919,1916,1910,1907,1901,1898,1892,1886,1883,1877,1871,1865,1862,1856,1850,1847,1844,1844,1844,1841,1838,1835,1832,1832,1829,1826,1823,1823,1823,1820,1820,1820,1820,1820,1820,1820,1817,1820,1820,1820,1820,1823,1823,1823,1823,1826,1826,1826,1826,1829,1829,1832,1835,1835,1838,1841,1844,1850,1853,1859,1865,1868,1874,1877,1883,1889,1895,1898,1904,1910,1916,1916,1916,1916,1916,1916,1916,1916,1913,1910,1901,1895,1889,1886,1880,1877,1871,1865,1856,1850,1841,1832,1826,1820,1814,1814,1811,1808,1805,1805,1802,1799,1796,1796,1793,1790,1790,1787,1784,1781,1781,1778,1775,1772,1772,1769,1766,1763,1763,1760,1757,1757,1754,1751,1748,1748,1745,1742,1742,1739,1736,1736,1733,1730,1730,1730,1727,1727,1727,1724,1724,1724,1721,1721,1721,1718,1718,1718,1715,1715,1715,1712,1709,1709,1706,1706,1703,1700,1700,1697,1697,1694,1691,1691,1688,1688,1685,1685,1682,1679,1679,1676,1676,1673,1673,1670,1667,1667,1664,1664,1661,1661,1658,1655,1655,1652,1652,1649,1649,1646,1646,1646,1646,1646,1646,1646,1649,1649,1649,1649,1652,1652,1655,1655,1655,1658,1658,1658,1661,1664,1670,1673,1676,1679,1679,1679,1682,1682,1682,1682,1679,1679,1676,1676,1673,1673,1670,1670,1670,1667,1667,1667,1664,1664,1664,1661,1661,1655,1652,1646,1643,1637,1634,1628,1625,1619,1616,1613,1607,1604,1598,1595,1589,1586,1580,1577,1571,1568,1562,1559,1553,1550,1544,1541,1538,1535,1532,1532,1529,1526,1523,1520,1517,1514,1508,1505,1499,1493,1487,1481,1475,1469,1463,1457,1451,1448,1442,1436,1430,1424,1418,1412,1406,1403,1400,1394,1391,1388,1385,1382,1382,1379,1376,1376,1373,1373,1370,1367,1361,1358,1352,1349,1343,1340,1340,1340,1340,1340,1340,1337,1334,1334,1331,1331,1328
1853,1847,1844,1841,1838,1832,1829,1826,1820,1817,1811,1805,1802,1796,1793,1790,1790,1787,1784,1778,1775,1772,1769,1766,1763,1760,1754,1751,1748,1745,1742,1739,1736,1736,1736,1736,1736,1739,1736,1736,1733,1733,1730,1730,1727,1727,1724,1724,1721,1721,1718,1718,1718,1718,1718,1718,1718,1721,1721,1721,1721,1721,1721,1721,1721,1724,1727,1727,1727,1727,1727,1727,1727,1727,1727,1727,1724,1724,1724,1724,1721,1721,1721,1721,1718,1718,1718,1718,1715,1715,1715,1712,1712,1712,1712,1709,1709,1709,1709,1706,1706,1706,1706,1703,1703,1700,1700,1697,1697,1694,1694,1691,1691,1688,1688,1688,1685,1685,1685,1685,1682,1682,1682,1682,1679,1679,1679,1679,1676,1676,1676,1676,1676,1676,1676,1676,1676,1676,1679,1682,1682,1685,1688,1688,1691,1694,1694,1697,1697,1697,1697,1697,1697,1697,1694,1691,1691,1688,1685,1682,1682,1679,1676,1673,1673,1670,1667,1667,1664,1661,1658,1658,1655,1652,1649,1649,1646,1643,1640,1640,1637,1634,1631,1628,1631,1634,1637,1637,1640,1643,1646,1649,1652,1655,1655,1658,1658,1661,1661,1664,1664,1667,1667,1670,1670,1673,1673,1673,1676,1676,1679,1679,1682,1682,1685,1685,1688,1688,1691,1694,1694,1697,1700,1703,1709,1715,1721,1727,1733,1739,1748,1751,1757,1760,1763,1766,1766,1766,1766,1769,1775,1781,1787,1793,1799,1805,1811,1817,1823,1829,1838,1844,1850,1856,1862,1868,1874,1880,1886,1892,1898,1904,1910,1916,1919,1925,1925,1925,1925,1925,1925,1925,1922,1916,1913,1907,1904,1898,1892,1889,1883,1877,1874,1868,1862,1856,1853,1847,1841,1841,1841,1838,1835,1832,1829,1829,1826,1823,1820,1820,1820,1820,1820,1820,1820,1817,1817,1817,1817,1817,1817,1817,1820,1820,1820,1820,1823,1823,1823,1823,1826,1826,1829,1832,1832,1835,1838,1841,1844,1850,1853,1859,1862,1868,1874,1877,1883,1886,1892,1898,1904,1907,1913,1913,1913,1916,1916,1916,1916,1913,1913,1907,1901,1895,1889,1886,1880,1877,1874,1865,1859,1850,1841,1835,1826,1817,1814,1811,1808,1805,1805,1802,1799,1799,1796,1793,1790,1790,1787,1784,1781,1781,1778,1775,1775,1772,1769,1769,1766,1763,1763,1760,1757,1757,1754,1751,1751,1748,1748,1745,1742,1742,1739,1736,1733,1730,1727,1724,1724,1724,1721,1721,1721,1718,1718,1718,1715,1715,1715,1712,1712,1712,1712,1709,1709,1706,1703,1703,1700,1700,1697,1694,1694,1691,1691,1688,1685,1685,1682,1682,1679,1676,1676,1673,1673,1670,1667,1667,1664,1664,1661,1661,1658,1655,1655,1652,1652,1649,1649,1646,1646,1643,1640,1643,1643,1643,1643,1643,1643,1643,1643,1643,1646,1646,1646,1649,1649,1652,1652,1652,1655,1658,1664,1667,1667,1670,1670,1670,1673,1673,1673,1673,1673,1670,1670,1667,1667,1664,1664,1664,1661,1661,1661,1658,1658,1658,1655,1655,1652,1652,1649,1643,1640,1634,1631,1625,1622,1616,1613,1607,1604,1598,1595,1589,1586,1580,1577,1571,1568,1562,1559,1553,1550,1544,1541,1535,1532,1529,1529,1526,1523,1520,1517,1514,1511,1508,1502,1496,1493,1487,1481,1475,1469,1463,1457,1451,1445,1439,1433,1427,1421,1415,1412,1406,1403,1400,1394,1391,1388,1385,1382,1379,1376,1376,1373,1370,1367,1367,1364,1361,1358,1352,1349,1346,1340,1340,1340,1340,1340,1337,1334,1334,1331,1331,1328,1328,1325
1853,1850,1847,1841,1838,1835,1832,1826,1823,1817,1811,1808,1802,1796,1793,1793,1790,1787,1784,1781,1775,1772,1769,1766,1763,1760,1757,1751,1748,1745,1742,1739,1736,1733,1733,1733,1736,1736,1736,1736,1733,1733,1730,1730,1727,1727,1724,1724,1721,1721,1718,1718,1718,1718,1718,1718,1718,1718,1721,1721,1721,1721,1721,1721,1721,1721,1724,1724,1724,1727,1727,1727,1724,1724,1724,1724,1724,1724,1721,1721,1721,1721,1718,1718,1718,1718,1715,1715,1715,1712,1712,1712,1712,1709,1709,1709,1709,1706,1706,1706,1706,1703,1703,1700,1700,1697,1697,1694,1694,1694,1691,1691,1688,1688,1685,1685,1685,1682,1682,1682,1682,1679,1679,1679,1679,1676,1676,1676,1676,1673,1673,1673,1673,1673,1673,1673,1673,1673,1676,1676,1679,1682,1682,1685,1685,1688,1691,1691,1694,1694,1694,1694,1694,1694,1691,1688,1688,1685,1682,1682,1679,1676,1673,1673,1670,1667,1664,1664,1661,1658,1655,1655,1652,1649,1649,1646,1643,1640,1640,1637,1634,1631,1631,1628,1628,1631,1634,1637,1637,1640,1643,1646,1649,1652,1655,1655,1658,1658,1661,1661,1664,1664,1664,1667,1667,1670,1670,1673,1673,1676,1676,1679,1679,1679,1682,1682,1685,1685,1688,1691,1691,1694,1697,1703,1709,1715,1718,1724,1730,1739,1745,1748,1751,1754,1757,1760,1760,1760,1763,1769,1775,1781,1787,1793,1799,1805,1811,1817,1823,1829,1835,1841,1847,1853,1859,1865,1871,1877,1883,1889,1895,1901,1907,1913,1919,1922,1922,1925,1925,1925,1925,1925,1922,1919,1913,1910,1904,1898,1895,1889,1883,1880,1874,1868,1865,1859,1853,1847,1844,1841,1838,1835,1832,1829,1826,1826,1823,1820,1820,1820,1820,1817,1817,1817,1817,1817,1817,1817,1814,1814,1817,1817,1817,1817,1820,1820,1820,1820,1823,1823,1826,1826,1829,1829,1832,1835,1835,1838,1844,1847,1853,1859,1862,1868,1871,1877,1883,1886,1892,1895,1901,1907,1913,1913,1913,1913,1913,1913,1913,1913,1910,1907,1901,1895,1889,1886,1883,1877,1874,1868,1859,1850,1844,1835,1826,1817,1811,1811,1808,1805,1805,1802,1799,1799,1796,1793,1793,1790,1787,1787,1784,1781,1781,1778,1775,1775,1772,1769,1769,1766,1763,1763,1760,1757,1757,1754,1751,1751,1748,1745,1745,1742,1739,1736,1733,1730,1727,1724,1724,1721,1718,1718,1718,1715,1715,1715,1712,1712,1712,1709,1709,1709,1706,1706,1706,1703,1700,1700,1697,1697,1694,1691,1691,1688,1688,1685,1682,1682,1679,1679,1676,1673,1673,1670,1670,1667,1664,1664,1661,1661,1658,1655,1655,1652,1652,1649,1649,1646,1643,1643,1640,1640,1637,1637,1637,1637,1637,1637,1637,1640,1640,1640,1640,1640,1640,1643,1643,1646,1646,1646,1649,1655,1658,1658,1661,1661,1661,1664,1664,1664,1667,1667,1664,1664,1661,1661,1658,1658,1655,1655,1655,1652,1652,1652,1649,1649,1649,1646,1646,1646,1643,1640,1634,1631,1625,1622,1616,1613,1607,1604,1598,1595,1592,1586,1583,1577,1574,1568,1565,1559,1556,1550,1547,1541,1538,1532,1529,1526,1523,1520,1517,1514,1511,1508,1505,1499,1496,1490,1484,1478,1472,1466,1463,1457,1451,1445,1439,1433,1427,1421,1415,1409,1406,1403,1400,1397,1391,1388,1385,1382,1379,1376,1373,1370,1367,1367,1364,1361,1358,1358,1355,1349,1346,1340,1340,1340,1340,1337,1337,1334,1331,1331,1328,1328,1325,1322,1322
1856,1853,1847,1844,1841,1835,1832,1829,1823,1817,1814,1808,1802,1799,1796,1793,1790,1787,1784,1781,1778,1772,1769,1766,1763,1760,1757,1754,1748,1745,1742,1739,1736,1733,1730,1733,1733,1733,1733,1736,1733,1733,1730,1730,1727,1727,1724,1724,1721,1721,1718,1718,1718,1718,1718,1718,1718,1718,1718,1721,1721,1721,1721,1721,1721,1721,1721,1724,1724,1724,1724,1724,1724,1724,1724,1724,1721,1721,1721,1721,1718,1718,1718,1718,1715,1715,1715,1715,1712,1712,1712,1709,1709,1709,1709,1706,1706,1706,1706,1703,1703,1700,1700,1697,1697,1697,1694,1694,1691,1691,1688,1688,1685,1685,1682,1682,1682,1682,1679,1679,1679,1679,1676,1676,1676,1676,1673,1673,1673,1673,1670,1670,1670,1670,1670,1667,1667,1670,1670,1673,1673,1676,1679,1679,1682,1685,1685,1688,1691,1691,1691,1694,1694,1691,1688,1688,1685,1682,1679,1679,1676,1673,1673,1670,1667,1664,1664,1661,1658,1655,1655,1652,1649,1646,1646,1643,1640,1640,1637,1634,1631,1631,1628,1625,1625,1628,1631,1634,1637,1640,1640,1643,1646,1649,1652,1652,1655,1655,1658,1658,1661,1661,1664,1664,1667,1667,1670,1670,1670,1673,1673,1676,1676,1679,1679,1682,1682,1685,1685,1688,1688,1691,1697,1700,1706,1712,1718,1724,1730,1736,1742,1745,1745,1748,1751,1754,1754,1754,1760,1766,1772,1778,1784,1790,1796,1802,1808,1817,1823,1829,1835,1838,1844,1850,1856,1862,1868,1874,1880,1886,1892,1898,1904,1910,1916,1919,1922,1922,1925,1925,1925,1925,1925,1919,1916,1910,1904,1901,1895,1889,1886,1880,1874,1871,1865,1859,1856,1850,1844,1838,1835,1832,1832,1829,1826,1823,1820,1817,1817,1817,1817,1817,1817,1817,1814,1814,1814,1814,1814,1814,1814,1814,1814,1817,1817,1817,1817,1820,1820,1823,1823,1826,1829,1829,1832,1832,1835,1838,1844,1847,1853,1856,1862,1868,1871,1877,1880,1886,1889,1895,1901,1907,1910,1910,1910,1910,1913,1913,1913,1913,1910,1907,1898,1895,1892,1886,1883,1880,1874,1868,1859,1850,1844,1835,1826,1820,1814,1811,1811,1808,1805,1805,1802,1799,1799,1796,1793,1793,1790,1787,1787,1784,1781,1781,1778,1775,1775,1772,1769,1769,1766,1763,1763,1760,1757,1757,1754,1751,1751,1748,1745,1742,1739,1736,1733,1730,1727,1724,1721,1721,1718,1715,1715,1712,1712,1712,1709,1709,1709,1706,1706,1706,1703,1703,1703,1700,1697,1697,1694,1694,1691,1688,1688,1685,1685,1682,1679,1679,1676,1676,1673,1670,1670,1667,1667,1664,1661,1661,1658,1658,1655,1652,1652,1649,1649,1646,1643,1643,1640,1640,1637,1637,1634,1634,1634,1634,1634,1634,1634,1634,1634,1634,1634,1634,1637,1637,1637,1640,1640,1640,1643,1646,1649,1652,1652,1652,1655,1655,1655,1658,1658,1658,1658,1655,1655,1652,1652,1649,1649,1649,1646,1646,1646,1643,1643,1643,1640,1640,1640,1637,1637,1634,1631,1628,1622,1619,1613,1610,1604,1601,1595,1592,1586,1583,1577,1574,1568,1565,1559,1556,1550,1547,1541,1538,1532,1529,1523,1520,1517,1514,1514,1508,1505,1502,1496,1493,1490,1484,1478,1472,1466,1460,1454,1448,1442,1436,1430,1424,1421,1415,1409,1406,1403,1400,1397,1394,1388,1385,1382,1379,1376,1373,1370,1367,1364,1361,1361,1358,1355,1352,1349,1346,1343,1340,1340,1337,1337,1334,1334,1331,1328,1328,1325,1325,1322,1319,1319
1856,1853,1850,1844,1841,1838,1835,1829,1826,1820,1814,1808,1805,1799,1796,1793,1790,1787,1784,1781,1778,1775,1769,1766,1763,1760,1757,1754,1751,1745,1742,1739,1736,1733,1730,1730,1730,1730,1733,1733,1733,1733,1730,1730,1727,1727,1724,1724,1721,1721,1718,1718,1718,1718,1718,1718,1718,1718,1718,1718,1721,1721,1721,1721,1721,1721,1721,1721,1724,1724,1724,1724,1721,1721,1721,1721,1721,1721,1718,1718,1718,1718,1715,1715,1715,1715,1712,1712,1712,1709,1709,1709,1709,1706,1706,1706,1706,1703,1703,1700,1700,1700,1697,1697,1694,1694,1691,1691,1688,1688,1685,1685,1682,1682,1682,1679,1679,1679,1676,1676,1676,1676,1673,1673,1673,1673,1670,1670,1670,1670,1667,1667,1667,1667,1667,1664,1664,1664,1667,1667,1670,1673,1673,1676,1679,1679,1682,1685,1685,1688,1691,1691,1691,1688,1688,1685,1682,1679,1679,1676,1673,1670,1670,1667,1664,1664,1661,1658,1655,1655,1652,1649,1646,1646,1643,1640,1637,1637,1634,1631,1628,1628,1625,1622,1622,1625,1628,1631,1634,1637,1640,1640,1643,1646,1649,1652,1652,1655,1655,1658,1658,1658,1661,1661,1664,1664,1667,1667,1670,1670,1673,1673,1673,1676,1676,1679,1679,1682,1682,1685,1685,1688,1694,1700,1706,1712,1718,1721,1730,1733,1736,1739,1739,1742,1745,1748,1748,1754,1760,1766,1772,1778,1784,1790,1796,1802,1808,1814,1820,1826,1832,1838,1844,1850,1856,1862,1868,1874,1880,1886,1892,1898,1901,1907,1913,1916,1919,1919,1922,1925,1925,1925,1925,1922,1916,1910,1907,1901,1895,1892,1886,1880,1877,1871,1865,1862,1856,1850,1847,1841,1835,1835,1832,1829,1826,1823,1820,1817,1817,1817,1817,1814,1814,1814,1814,1814,1814,1814,1811,1811,1811,1814,1814,1814,1814,1817,1817,1817,1820,1820,1823,1826,1826,1829,1832,1832,1835,1838,1844,1847,1853,1856,1862,1865,1871,1877,1880,1886,1889,1895,1898,1904,1907,1910,1910,1910,1910,1910,1910,1910,1910,1904,1901,1895,1892,1889,1883,1880,1877,1868,1859,1853,1844,1835,1829,1823,1820,1814,1811,1811,1808,1805,1805,1802,1799,1799,1796,1793,1793,1790,1787,1787,1784,1781,1781,1778,1775,1775,1772,1769,1769,1766,1763,1763,1760,1757,1757,1754,1751,1751,1748,1742,1739,1736,1733,1730,1727,1724,1721,1718,1718,1715,1715,1712,1709,1709,1706,1706,1703,1703,1703,1703,1700,1700,1700,1697,1694,1694,1691,1691,1688,1685,1685,1682,1682,1679,1676,1676,1673,1673,1670,1667,1667,1664,1664,1661,1658,1658,1655,1655,1652,1649,1649,1646,1646,1643,1640,1640,1637,1637,1634,1631,1631,1628,1628,1628,1628,1628,1628,1631,1631,1631,1631,1631,1631,1631,1631,1631,1634,1634,1637,1640,1640,1643,1643,1646,1646,1646,1649,1649,1649,1652,1649,1649,1646,1646,1643,1643,1643,1640,1640,1640,1637,1637,1634,1634,1634,1631,1631,1631,1628,1628,1628,1622,1619,1613,1610,1604,1601,1595,1592,1586,1583,1577,1574,1568,1565,1562,1556,1553,1547,1544,1538,1535,1529,1526,1520,1517,1511,1511,1508,1502,1499,1493,1490,1487,1481,1475,1472,1466,1460,1454,1448,1442,1436,1430,1424,1418,1415,1409,1406,1403,1400,1397,1394,1388,1385,1382,1379,1376,1373,1370,1367,1364,1361,1358,1355,1355,1352,1349,1346,1343,1340,1337,1337,1334,1334,1331,1328,1328,1325,1325,1322,1319,1319,1316,1313
1859,1856,1850,1847,1844,1838,1835,1832,1826,1820,1817,1811,1805,1799,1799,1796,1790,1787,1784,1781,1778,1775,1772,1766,1763,1760,1757,1754,1751,1748,1742,1739,1736,1733,1730,1727,1727,1727,1730,1730,1730,1730,1730,1730,1727,1727,1724,1724,1721,1721,1718,1718,1718,1718,1718,1718,1718,1718,1718,1718,1718,1718,1721,1721,1721,1721,1721,1721,1721,1721,1721,1721,1721,1721,1721,1721,1718,1718,1718,1718,1715,1715,1715,1715,1712,1712,1712,1712,1709,1709,1709,1706,1706,1706,1706,1703,1703,1703,1700,1700,1697,1697,1694,1694,1691,1691,1688,1688,1685,1685,1685,1682,1682,1679,1679,1676,1676,1676,1676,1673,1673,1673,1673,1670,1670,1670,1670,1667,1667,1667,1667,1664,1664,1664,1664,1661,1661,1661,1661,1664,1667,1667,1670,1673,1673,1676,1679,1679,1682,1685,1685,1688,1688,1688,1685,1682,1679,1679,1676,1673,1670,1670,1667,1664,1661,1661,1658,1655,1652,1652,1649,1646,1643,1643,1640,1637,1634,1631,1631,1628,1625,1622,1622,1619,1622,1622,1625,1628,1631,1634,1637,1640,1640,1643,1646,1649,1649,1652,1652,1655,1655,1658,1658,1661,1661,1664,1664,1664,1667,1667,1670,1670,1673,1673,1676,1676,1679,1679,1679,1682,1682,1688,1694,1700,1703,1709,1715,1721,1724,1727,1730,1733,1733,1736,1739,1742,1745,1751,1757,1763,1769,1775,1781,1787,1793,1799,1805,1811,1817,1823,1829,1835,1841,1847,1853,1859,1865,1871,1877,1883,1889,1895,1901,1907,1913,1916,1916,1919,1919,1922,1922,1925,1925,1922,1916,1913,1907,1901,1898,1892,1886,1883,1877,1871,1868,1862,1856,1853,1847,1841,1838,1835,1832,1829,1826,1823,1820,1817,1817,1817,1814,1814,1814,1814,1811,1811,1811,1811,1811,1811,1811,1811,1811,1811,1814,1814,1814,1817,1820,1820,1823,1823,1826,1829,1829,1832,1835,1838,1841,1847,1850,1856,1862,1865,1871,1874,1880,1886,1889,1895,1898,1904,1907,1907,1907,1907,1907,1907,1910,1910,1910,1904,1901,1898,1892,1889,1886,1880,1877,1868,1859,1853,1844,1835,1829,1826,1823,1817,1814,1811,1811,1808,1805,1805,1802,1799,1799,1796,1793,1793,1790,1787,1787,1784,1781,1781,1778,1775,1775,1772,1769,1769,1766,1763,1763,1760,1757,1757,1754,1751,1748,1745,1742,1739,1733,1730,1727,1724,1721,1718,1715,1715,1712,1712,1709,1709,1706,1703,1703,1700,1700,1697,1697,1697,1694,1694,1691,1691,1688,1688,1685,1682,1682,1679,1679,1676,1676,1673,1670,1670,1667,1667,1664,1661,1661,1658,1658,1655,1652,1652,1649,1649,1646,1643,1643,1640,1637,1637,1634,1634,1631,1631,1628,1628,1625,1625,1625,1625,1625,1625,1625,1625,1625,1625,1625,1628,1628,1628,1628,1628,1631,1631,1634,1634,1634,1637,1637,1637,1640,1640,1640,1643,1643,1640,1640,1637,1637,1634,1634,1634,1631,1631,1631,1628,1628,1628,1625,1625,1625,1622,1622,1622,1619,1619,1616,1610,1607,1601,1598,1592,1589,1583,1580,1574,1571,1565,1562,1556,1553,1547,1544,1538,1535,1529,1526,1520,1517,1511,1508,1505,1499,1496,1493,1487,1484,1481,1475,1469,1463,1457,1451,1445,1439,1436,1430,1424,1418,1415,1412,1406,1403,1400,1397,1394,1391,1385,1382,1379,1376,1373,1370,1367,1364,1361,1358,1355,1352,1349,1346,1346,1343,1340,1337,1334,1334,1331,1328,1328,1325,1325,1322,1322,1319,1316,1316,1313,1310
1859,1856,1853,1850,1844,1841,1838,1832,1826,1823,1817,1811,1808,1802,1799,1796,1793,1787,1784,1781,1778,1775,1772,1769,1763,1760,1757,1754,1751,1748,1745,1739,1736,1733,1730,1727,1724,1727,1727,1727,1727,1730,1730,1730,1727,1727,1724,1724,1721,1721,1718,1718,1718,1718,1718,1718,1718,1718,1718,1718,1718,1718,1718,1721,1721,1721,1721,1721,1721,1721,1721,1721,1718,1718,1718,1718,1718,1718,1715,1715,1715,1715,1712,1712,1712,1712,1709,1709,1709,1706,1706,1706,1706,1703,1703,1703,1700,1700,1697,1697,1694,1694,1691,1691,1691,1688,1688,1685,1685,1682,1682,1679,1679,1676,1676,1673,1673,1673,1673,1670,1670,1670,1670,1667,1667,1667,1667,1664,1664,1664,1664,1664,1661,1661,1661,1661,1658,1658,1658,1661,1661,1664,1667,1667,1670,1673,1673,1676,1679,1679,1682,1685,1685,1685,1682,1679,1676,1676,1673,1670,1667,1667,1664,1661,1658,1658,1655,1652,1649,1646,1646,1643,1640,1637,1637,1634,1631,1628,1625,1625,1622,1619,1619,1619,1619,1622,1622,1625,1628,1631,1634,1637,1640,1643,1643,1646,1649,1649,1652,1652,1652,1655,1655,1658,1658,1661,1661,1664,1664,1667,1667,1667,1670,1670,1673,1673,1676,1676,1679,1679,1682,1682,1688,1694,1700,1706,1709,1715,1721,1724,1727,1730,1730,1733,1736,1736,1742,1748,1754,1760,1766,1772,1778,1784,1790,1796,1802,1808,1814,1820,1826,1832,1838,1844,1850,1856,1862,1868,1874,1880,1886,1892,1898,1904,1910,1913,1913,1916,1919,1919,1922,1922,1925,1922,1919,1913,1907,1904,1898,1892,1889,1883,1877,1874,1868,1862,1859,1853,1847,1844,1838,1835,1832,1829,1826,1823,1820,1820,1817,1817,1814,1814,1814,1811,1811,1811,1811,1811,1808,1808,1808,1808,1808,1811,1811,1811,1814,1817,1817,1820,1823,1823,1826,1826,1829,1832,1832,1838,1841,1847,1850,1856,1859,1865,1871,1874,1880,1883,1889,1892,1898,1904,1907,1907,1910,1910,1910,1910,1910,1910,1910,1907,1901,1898,1895,1889,1886,1883,1877,1868,1862,1853,1844,1838,1832,1829,1826,1820,1817,1814,1811,1811,1808,1805,1805,1802,1799,1799,1796,1793,1793,1790,1787,1787,1784,1781,1781,1778,1775,1775,1772,1769,1769,1766,1763,1763,1760,1757,1754,1751,1748,1745,1742,1739,1736,1733,1727,1724,1721,1718,1715,1715,1712,1709,1709,1706,1706,1703,1703,1700,1697,1697,1694,1694,1691,1691,1691,1688,1685,1685,1682,1682,1679,1676,1676,1673,1673,1670,1667,1667,1664,1664,1661,1658,1658,1655,1655,1652,1652,1649,1649,1646,1646,1643,1643,1640,1637,1637,1634,1634,1631,1631,1628,1628,1625,1622,1619,1619,1619,1619,1619,1622,1622,1622,1622,1622,1622,1622,1622,1622,1622,1625,1625,1625,1628,1628,1628,1631,1631,1631,1634,1634,1634,1634,1631,1631,1628,1628,1628,1625,1625,1625,1622,1622,1619,1619,1619,1616,1616,1616,1613,1613,1613,1610,1610,1607,1601,1598,1592,1589,1583,1580,1574,1571,1565,1562,1556,1553,1547,1544,1538,1535,1529,1526,1520,1517,1511,1508,1502,1499,1493,1490,1484,1481,1478,1472,1469,1463,1457,1451,1445,1439,1433,1427,1421,1418,1415,1412,1409,1403,1400,1397,1394,1391,1388,1382,1379,1376,1373,1370,1367,1364,1361,1358,1355,1352,1349,1346,1343,1340,1337,1334,1331,1328,1328,1325,1325,1322,1322,1319,1319,1316,1316,1313,1310,1310,1307
1859,1859,1853,1850,1847,1844,1838,1832,1829,1823,1817,1814,1808,1802,1799,1796,1793,1790,1784,1781,1778,1775,1772,1769,1766,1760,1757,1754,1751,1748,1745,1742,1736,1733,1730,1727,1724,1724,1724,1724,1727,1727,1727,1727,1727,1727,1724,1724,1721,1721,1718,1718,1718,1718,1718,1718,1718,1718,1718,1718,1718,1718,1718,1718,1721,1721,1721,1721,1721,1718,1718,1718,1718,1718,1718,1718,1715,1715,1715,1715,1712,1712,1712,1712,1709,1709,1709,1706,1706,1706,1706,1703,1703,1703,1700,1700,1697,1697,1694,1694,1694,1691,1691,1688,1688,1685,1685,1682,1682,1679,1679,1676,1676,1673,1673,1670,1670,1670,1670,1667,1667,1667,1667,1664,1664,1664,1664,1664,1661,1661,1661,1661,1658,1658,1658,1655,1655,1655,1655,1655,1658,1661,1661,1664,1667,1667,1670,1673,1673,1676,1679,1679,1682,1682,1679,1676,1673,1670,1670,1667,1664,1661,1661,1658,1655,1652,1649,1649,1646,1643,1640,1640,1637,1634,1631,1628,1628,1625,1622,1619,1619,1616,1616,1616,1619,1619,1622,1622,1625,1628,1631,1634,1637,1640,1643,1643,1646,1646,1649,1649,1652,1652,1655,1655,1658,1658,1658,1661,1661,1664,1664,1667,1667,1670,1670,1673,1673,1673,1676,1676,1679,1682,1685,1688,1694,1700,1706,1712,1715,1721,1724,1727,1727,1730,1733,1736,1739,1745,1754,1760,1766,1772,1778,1784,1790,1796,1802,1808,1814,1820,1826,1832,1838,1844,1850,1856,1862,1868,1874,1880,1883,1889,1895,1901,1907,1910,1913,1913,1916,1916,1919,1919,1922,1919,1916,1913,1910,1904,1898,1895,1889,1883,1880,1874,1868,1865,1859,1853,1850,1844,1838,1835,1832,1829,1826,1823,1820,1820,1817,1817,1814,1814,1814,1811,1811,1811,1808,1808,1808,1808,1808,1808,1808,1808,1811,1811,1814,1814,1817,1820,1820,1823,1826,1826,1829,1829,1832,1835,1841,1847,1850,1856,1859,1865,1868,1874,1880,1883,1889,1892,1898,1901,1907,1910,1910,1910,1910,1910,1910,1910,1910,1907,1901,1898,1895,1889,1886,1883,1877,1868,1862,1853,1847,1841,1835,1832,1829,1826,1820,1817,1814,1811,1811,1808,1805,1805,1802,1799,1799,1796,1793,1793,1790,1787,1787,1784,1781,1781,1778,1775,1775,1772,1769,1769,1766,1763,1760,1757,1754,1751,1748,1745,1742,1739,1736,1733,1730,1727,1724,1718,1715,1712,1712,1709,1709,1706,1703,1703,1700,1700,1697,1694,1694,1691,1691,1688,1688,1685,1685,1682,1682,1679,1676,1676,1673,1673,1670,1670,1667,1667,1664,1664,1661,1661,1658,1655,1655,1652,1652,1649,1649,1646,1646,1643,1643,1640,1640,1637,1637,1634,1631,1631,1628,1625,1622,1622,1619,1616,1616,1616,1616,1616,1616,1616,1616,1616,1616,1619,1619,1619,1619,1616,1616,1619,1619,1619,1622,1622,1622,1625,1625,1625,1628,1625,1625,1622,1622,1619,1619,1619,1616,1616,1616,1613,1613,1613,1610,1610,1610,1607,1607,1607,1604,1604,1601,1601,1598,1595,1589,1586,1580,1577,1571,1568,1562,1559,1553,1550,1544,1541,1535,1532,1526,1523,1517,1514,1508,1505,1499,1493,1487,1481,1478,1475,1469,1466,1460,1454,1448,1445,1439,1433,1427,1421,1418,1415,1412,1409,1403,1400,1397,1394,1391,1388,1382,1379,1376,1373,1370,1367,1364,1361,1358,1355,1352,1349,1346,1343,1340,1337,1334,1331,1328,1325,1322,1322,1319,1319,1316,1316,1313,1310,1310,1307,1307,1304,1301
1859,1859,1856,1853,1847,1844,1838,1835,1829,1823,1820,1814,1811,1808,1802,1796,1793,1790,1787,1781,1778,1775,1772,1769,1766,1763,1757,1754,1751,1748,1745,1742,1739,1733,1730,1727,1724,1721,1721,1724,1724,1724,1724,1727,1727,1727,1724,1724,1721,1721,1718,1718,1718,1718,1718,1718,1718,1718,1718,1718,1718,1718,1718,1718,1718,1718,1718,1718,1718,1718,1718,1718,1715,1715,1715,1715,1715,1715,1712,1712,1712,1712,1709,1709,1709,1709,1706,1706,1706,1703,1703,1703,1700,1700,1697,1697,1697,1694,1694,1691,1691,1688,1688,1685,1685,1682,1682,1679,1679,1676,1676,1673,1673,1670,1670,1667,1667,1667,1667,1667,1664,1664,1664,1664,1661,1661,1661,1658,1658,1658,1658,1655,1655,1655,1655,1655,1655,1652,1652,1655,1655,1658,1658,1661,1661,1664,1667,1667,1670,1673,1673,1676,1679,1679,1676,1673,1670,1667,1664,1664,1661,1658,1655,1655,1652,1649,1646,1643,1643,1640,1637,1634,1634,1631,1628,1625,1622,1622,1619,1616,1613,1613,1616,1616,1616,1619,1619,1622,1625,1625,1628,1631,1634,1637,1640,1643,1643,1646,1646,1646,1649,1649,1652,1652,1655,1655,1658,1658,1661,1661,1664,1664,1664,1667,1667,1670,1670,1673,1673,1673,1676,1679,1682,1685,1688,1694,1700,1706,1712,1718,1721,1724,1727,1727,1730,1733,1736,1742,1748,1757,1763,1769,1775,1781,1787,1793,1799,1805,1811,1817,1823,1829,1835,1841,1847,1853,1859,1865,1871,1877,1883,1889,1895,1901,1907,1907,1910,1910,1913,1916,1916,1919,1919,1919,1916,1913,1910,1904,1901,1895,1889,1886,1880,1874,1871,1865,1859,1856,1850,1844,1841,1835,1832,1829,1826,1823,1820,1820,1817,1817,1817,1814,1814,1811,1811,1811,1808,1808,1805,1805,1805,1805,1805,1808,1808,1811,1814,1814,1817,1817,1820,1823,1823,1826,1829,1829,1832,1835,1841,1844,1850,1853,1859,1865,1868,1874,1877,1883,1886,1892,1895,1901,1904,1910,1910,1910,1910,1910,1910,1910,1910,1907,1904,1898,1895,1889,1886,1883,1877,1868,1862,1853,1847,1841,1838,1835,1832,1829,1823,1820,1817,1814,1811,1811,1808,1805,1805,1802,1799,1799,1796,1793,1793,1790,1787,1787,1784,1781,1781,1778,1775,1775,1772,1769,1766,1763,1760,1757,1754,1751,1748,1745,1742,1739,1736,1733,1730,1727,1724,1721,1718,1715,1709,1709,1706,1706,1703,1700,1700,1697,1697,1694,1694,1691,1688,1688,1685,1685,1685,1682,1682,1679,1679,1676,1673,1673,1670,1670,1667,1667,1664,1664,1661,1661,1658,1658,1655,1655,1652,1649,1649,1646,1646,1643,1643,1640,1640,1637,1637,1634,1634,1631,1628,1625,1622,1619,1616,1616,1613,1613,1613,1613,1610,1613,1613,1613,1613,1613,1613,1613,1613,1613,1613,1610,1610,1610,1613,1613,1613,1616,1616,1616,1619,1619,1616,1616,1613,1613,1613,1610,1610,1610,1607,1607,1607,1604,1604,1601,1601,1601,1598,1598,1598,1595,1595,1595,1592,1589,1586,1580,1577,1571,1568,1562,1559,1553,1550,1544,1541,1535,1532,1526,1523,1517,1514,1508,1505,1502,1496,1490,1484,1475,1472,1466,1463,1460,1454,1448,1442,1436,1430,1427,1421,1418,1415,1412,1409,1406,1400,1397,1394,1391,1388,1385,1379,1376,1373,1370,1367,1364,1361,1358,1355,1352,1349,1346,1343,1340,1337,1334,1331,1328,1325,1322,1319,1316,1313,1313,1310,1310,1307,1307,1304,1304,1301,1301,1295
1856,1856,1856,1853,1850,1847,1841,1835,1829,1826,1823,1817,1814,1811,1805,1802,1796,1790,1787,1784,1778,1775,1772,1769,1766,1763,1760,1754,1751,1748,1745,1742,1739,1736,1730,1727,1724,1721,1718,1721,1721,1721,1724,1724,1724,1724,1724,1724,1721,1721,1718,1718,1715,1718,1718,1718,1718,1718,1718,1718,1718,1718,1718,1718,1718,1718,1718,1718,1718,1718,1715,1715,1715,1715,1715,1715,1712,1712,1712,1712,1709,1709,1709,1709,1706,1706,1706,1703,1703,1703,1700,1700,1700,1697,1697,1694,1694,1691,1691,1688,1688,1685,1685,1682,1682,1679,1679,1676,1676,1673,1673,1670,1670,1667,1667,1667,1664,1664,1664,1664,1661,1661,1661,1658,1658,1658,1658,1655,1655,1655,1655,1652,1652,1652,1652,1652,1652,1652,1652,1652,1652,1652,1655,1658,1658,1661,1661,1664,1667,1667,1670,1673,1673,1676,1673,1670,1667,1664,1664,1661,1658,1655,1652,1649,1646,1646,1643,1640,1637,1637,1634,1631,1628,1625,1625,1622,1619,1616,1616,1613,1613,1613,1613,1616,1616,1616,1616,1619,1622,1625,1625,1628,1631,1634,1637,1640,1640,1643,1643,1646,1646,1649,1649,1652,1652,1652,1655,1655,1658,1658,1661,1661,1664,1664,1667,1667,1667,1670,1670,1673,1673,1676,1679,1682,1685,1691,1694,1700,1706,1712,1718,1721,1724,1727,1727,1730,1736,1739,1745,1751,1760,1766,1772,1778,1784,1790,1796,1802,1808,1814,1820,1826,1832,1838,1844,1850,1856,1862,1868,1874,1880,1886,1892,1898,1904,1907,1907,1910,1910,1913,1913,1916,1919,1916,1913,1910,1907,1904,1901,1898,1892,1886,1883,1877,1871,1865,1862,1856,1850,1847,1841,1835,1832,1829,1826,1823,1820,1820,1817,1817,1817,1814,1814,1811,1811,1811,1808,1808,1808,1805,1805,1802,1805,1808,1808,1811,1811,1814,1817,1817,1820,1820,1823,1826,1826,1829,1832,1835,1841,1844,1850,1853,1859,1862,1868,1874,1877,1883,1886,1892,1895,1901,1904,1910,1910,1910,1913,1913,1913,1913,1913,1907,1904,1898,1895,1892,1886,1883,1877,1868,1862,1856,1850,1844,1841,1838,1835,1832,1829,1823,1820,1817,1814,1811,1808,1808,1805,1805,1802,1799,1799,1796,1793,1793,1790,1787,1787,1784,1781,1781,1778,1775,1775,1772,1769,1763,1760,1757,1754,1751,1748,1745,1742,1739,1736,1733,1730,1727,1724,1721,1718,1715,1712,1709,1706,1703,1703,1700,1700,1697,1694,1694,1691,1691,1688,1688,1685,1685,1682,1682,1682,1679,1679,1676,1676,1673,1670,1670,1667,1667,1664,1664,1661,1661,1658,1658,1655,1655,1652,1652,1649,1646,1646,1643,1643,1640,1640,1637,1637,1634,1631,1628,1628,1625,1622,1619,1616,1613,1613,1610,1610,1610,1610,1607,1607,1607,1607,1607,1607,1610,1607,1607,1607,1607,1607,1604,1604,1604,1607,1607,1607,1610,1610,1610,1610,1607,1607,1604,1604,1604,1601,1601,1601,1598,1598,1598,1595,1595,1595,1592,1592,1592,1589,1589,1586,1586,1586,1583,1580,1577,1574,1568,1565,1559,1556,1550,1547,1541,1538,1532,1529,1523,1520,1514,1511,1505,1502,1496,1493,1487,1478,1472,1466,1460,1457,1454,1448,1442,1436,1430,1427,1424,1418,1415,1412,1409,1406,1403,1397,1394,1391,1388,1385,1379,1376,1373,1370,1367,1364,1361,1358,1355,1352,1349,1346,1343,1340,1337,1334,1331,1328,1325,1322,1319,1316,1313,1310,1307,1307,1304,1304,1301,1298,1298,1295,1295,1289
1859,1856,1856,1856,1850,1847,1841,1838,1835,1829,1826,1823,1817,1814,1808,1805,1799,1796,1790,1784,1781,1775,1772,1769,1766,1763,1760,1757,1751,1748,1745,1742,1739,1736,1733,1727,1724,1721,1718,1718,1718,1718,1721,1721,1721,1721,1724,1724,1721,1721,1718,1718,1715,1715,1718,1718,1718,1718,1718,1718,1718,1718,1718,1718,1718,1718,1718,1718,1715,1715,1715,1715,1712,1712,1712,1712,1712,1712,1709,1709,1709,1709,1706,1706,1706,1706,1703,1703,1703,1700,1700,1697,1697,1694,1694,1691,1691,1688,1688,1685,1685,1682,1682,1679,1679,1676,1676,1673,1673,1670,1670,1667,1667,1664,1664,1661,1661,1661,1661,1658,1658,1658,1658,1655,1655,1655,1655,1652,1652,1652,1649,1649,1649,1649,1649,1649,1649,1649,1649,1649,1649,1649,1652,1652,1655,1658,1658,1661,1664,1664,1667,1667,1670,1670,1670,1667,1664,1664,1661,1658,1655,1652,1649,1646,1643,1640,1640,1637,1634,1631,1631,1628,1625,1622,1619,1619,1616,1613,1610,1610,1610,1613,1613,1613,1613,1616,1616,1616,1619,1622,1625,1628,1628,1631,1634,1637,1640,1640,1640,1643,1643,1646,1646,1649,1649,1652,1652,1655,1655,1658,1658,1658,1661,1661,1664,1664,1667,1667,1667,1670,1670,1673,1676,1679,1682,1688,1691,1694,1700,1706,1712,1715,1718,1724,1727,1727,1733,1736,1742,1748,1754,1760,1769,1775,1781,1787,1793,1802,1808,1814,1820,1826,1832,1838,1844,1850,1856,1859,1865,1871,1877,1883,1889,1895,1901,1904,1904,1907,1910,1910,1913,1913,1916,1913,1910,1907,1904,1901,1898,1895,1892,1889,1883,1877,1874,1868,1862,1859,1853,1847,1841,1838,1832,1829,1826,1823,1820,1820,1820,1817,1817,1814,1814,1814,1811,1811,1808,1808,1808,1805,1805,1802,1802,1805,1808,1808,1811,1814,1814,1817,1820,1820,1823,1823,1826,1829,1829,1835,1838,1844,1850,1853,1859,1862,1868,1871,1877,1880,1886,1889,1895,1898,1904,1907,1913,1913,1913,1913,1913,1913,1913,1907,1904,1901,1895,1892,1886,1883,1877,1871,1865,1859,1853,1847,1844,1841,1838,1835,1832,1826,1823,1820,1817,1814,1811,1808,1808,1805,1802,1802,1799,1799,1796,1793,1793,1790,1787,1787,1784,1781,1781,1778,1775,1772,1769,1766,1763,1760,1754,1751,1748,1745,1742,1739,1736,1733,1730,1727,1724,1721,1718,1715,1712,1709,1706,1703,1700,1700,1697,1697,1694,1694,1691,1688,1688,1685,1685,1682,1682,1682,1679,1679,1679,1676,1676,1673,1673,1670,1670,1667,1664,1664,1661,1661,1658,1658,1655,1655,1652,1652,1649,1649,1646,1643,1643,1640,1640,1637,1637,1634,1631,1628,1625,1625,1622,1619,1616,1613,1610,1610,1610,1607,1607,1607,1604,1604,1604,1604,1604,1604,1604,1604,1601,1601,1601,1601,1601,1601,1598,1598,1601,1601,1601,1604,1601,1601,1598,1598,1598,1595,1595,1595,1592,1592,1592,1589,1589,1586,1586,1586,1583,1583,1583,1580,1580,1580,1577,1577,1577,1574,1568,1565,1559,1556,1550,1547,1541,1538,1532,1529,1523,1520,1514,1511,1508,1502,1499,1493,1490,1481,1475,1469,1460,1454,1451,1445,1439,1433,1430,1427,1424,1418,1415,1412,1409,1406,1403,1397,1394,1391,1388,1385,1382,1376,1373,1370,1367,1364,1361,1358,1355,1352,1349,1346,1343,1340,1337,1334,1331,1328,1325,1322,1319,1316,1313,1307,1304,1301,1301,1298,1298,1295,1295,1292,1292,1289,1283
1862,1859,1859,1856,1853,1850,1844,1841,1838,1835,1829,1826,1823,1817,1814,1808,1802,1799,1793,1790,1784,1781,1775,1769,1766,1763,1760,1757,1754,1748,1745,1742,1739,1736,1733,1730,1727,1724,1721,1721,1718,1718,1718,1718,1718,1721,1721,1721,1721,1721,1718,1718,1715,1715,1715,1718,1718,1718,1718,1718,1718,1718,1718,1718,1718,1715,1715,1715,1715,1715,1712,1712,1712,1712,1712,1712,1709,1709,1709,1709,1706,1706,1706,1706,1703,1703,1703,1700,1700,1697,1697,1694,1694,1691,1691,1688,1688,1685,1685,1682,1682,1679,1679,1676,1676,1673,1673,1670,1670,1667,1667,1667,1664,1661,1661,1658,1658,1658,1658,1655,1655,1655,1652,1652,1652,1652,1649,1649,1649,1649,1649,1649,1649,1649,1649,1649,1646,1646,1646,1646,1646,1646,1649,1649,1652,1652,1655,1658,1658,1661,1664,1664,1667,1667,1667,1664,1664,1661,1658,1655,1652,1649,1646,1643,1640,1637,1637,1634,1631,1628,1625,1622,1622,1619,1616,1613,1613,1610,1607,1610,1610,1610,1610,1613,1613,1613,1616,1616,1616,1619,1622,1625,1628,1628,1631,1634,1637,1637,1640,1640,1643,1643,1646,1646,1646,1649,1649,1652,1652,1655,1655,1658,1658,1661,1661,1661,1664,1664,1664,1667,1667,1670,1673,1676,1679,1685,1688,1691,1694,1700,1706,1712,1715,1718,1721,1727,1730,1736,1739,1745,1751,1757,1763,1772,1778,1784,1790,1796,1805,1811,1817,1823,1829,1835,1841,1847,1853,1859,1865,1871,1877,1883,1889,1895,1901,1901,1904,1904,1907,1907,1910,1913,1913,1910,1907,1904,1901,1898,1895,1892,1889,1886,1883,1880,1874,1868,1865,1859,1853,1850,1844,1838,1832,1829,1826,1823,1820,1820,1820,1817,1817,1814,1814,1814,1811,1811,1808,1808,1808,1805,1802,1796,1799,1802,1805,1808,1811,1811,1814,1817,1817,1820,1823,1823,1826,1826,1829,1835,1838,1844,1847,1853,1856,1862,1865,1871,1874,1880,1883,1889,1892,1898,1901,1907,1910,1913,1913,1913,1913,1913,1913,1910,1904,1901,1895,1892,1889,1883,1877,1871,1865,1859,1856,1853,1847,1844,1841,1838,1835,1832,1826,1823,1820,1817,1814,1811,1808,1808,1805,1802,1802,1799,1796,1796,1793,1793,1790,1787,1787,1784,1781,1778,1775,1772,1769,1766,1763,1760,1757,1754,1751,1745,1742,1739,1736,1733,1730,1727,1724,1721,1718,1715,1712,1709,1706,1703,1700,1700,1697,1694,1694,1691,1691,1688,1688,1685,1682,1682,1682,1679,1679,1679,1676,1676,1676,1673,1673,1670,1670,1667,1667,1664,1661,1661,1658,1658,1655,1655,1652,1652,1649,1649,1646,1646,1643,1640,1640,1637,1634,1634,1631,1628,1625,1622,1619,1619,1616,1613,1610,1610,1607,1607,1604,1604,1604,1601,1601,1601,1598,1598,1598,1598,1598,1598,1595,1595,1595,1595,1595,1595,1592,1592,1592,1595,1595,1592,1592,1592,1589,1589,1586,1586,1586,1583,1583,1583,1580,1580,1580,1577,1577,1577,1574,1574,1571,1571,1571,1568,1568,1568,1565,1559,1556,1550,1547,1541,1538,1532,1529,1526,1520,1517,1511,1508,1502,1499,1493,1490,1487,1478,1472,1466,1457,1451,1445,1439,1433,1430,1427,1424,1421,1415,1412,1409,1406,1403,1400,1394,1391,1388,1385,1382,1379,1373,1370,1367,1364,1361,1358,1355,1352,1349,1346,1343,1340,1337,1334,1331,1328,1325,1322,1319,1316,1310,1307,1304,1301,1298,1295,1295,1292,1292,1289,1289,1286,1283,1277
1865,1862,1862,1859,1856,1853,1847,1844,1841,1838,1832,1829,1826,1820,1817,1811,1808,1802,1796,1793,1787,1784,1778,1775,1769,1763,1760,1757,1754,1751,1745,1742,1739,1736,1733,1730,1727,1724,1721,1721,1721,1721,1718,1718,1718,1718,1718,1718,1721,1721,1718,1718,1715,1715,1715,1715,1718,1718,1718,1718,1718,1718,1715,1715,1715,1715,1715,1715,1715,1712,1712,1712,1709,1709,1709,1709,1709,1709,1706,1706,1706,1706,1703,1703,1703,1700,1700,1697,1697,1694,1694,1694,1691,1691,1688,1688,1685,1685,1682,1682,1679,1679,1676,1676,1673,1673,1670,1670,1667,1667,1664,1661,1661,1658,1658,1655,1655,1655,1652,1652,1652,1652,1649,1649,1649,1649,1646,1646,1646,1646,1646,1646,1646,1646,1646,1646,1643,1643,1643,1643,1643,1643,1646,1646,1646,1649,1652,1652,1655,1658,1658,1661,1664,1664,1664,1664,1661,1658,1655,1652,1649,1646,1643,1640,1640,1637,1634,1631,1628,1625,1622,1619,1616,1616,1613,1610,1607,1607,1607,1607,1607,1610,1610,1610,1613,1613,1613,1613,1616,1616,1619,1622,1625,1628,1628,1631,1634,1637,1637,1637,1640,1640,1643,1643,1646,1646,1649,1649,1652,1652,1652,1655,1655,1658,1658,1661,1661,1661,1664,1664,1667,1667,1670,1673,1676,1682,1685,1688,1691,1697,1700,1706,1712,1715,1718,1721,1727,1733,1736,1742,1748,1754,1760,1766,1775,1781,1787,1793,1799,1808,1814,1820,1826,1832,1838,1844,1850,1856,1862,1868,1874,1880,1886,1892,1898,1898,1901,1901,1904,1907,1907,1910,1913,1910,1907,1904,1901,1898,1895,1889,1886,1883,1880,1877,1874,1871,1865,1859,1856,1850,1844,1841,1835,1829,1826,1823,1823,1820,1820,1817,1817,1817,1814,1814,1811,1811,1811,1808,1805,1799,1796,1793,1793,1796,1799,1802,1808,1811,1814,1814,1817,1820,1820,1823,1826,1826,1829,1832,1838,1844,1847,1853,1856,1862,1865,1871,1874,1880,1883,1889,1892,1898,1901,1907,1910,1913,1913,1913,1913,1916,1913,1910,1904,1901,1898,1892,1889,1886,1880,1874,1868,1862,1859,1856,1850,1847,1844,1841,1838,1835,1829,1826,1823,1820,1817,1814,1811,1808,1808,1805,1802,1802,1799,1796,1796,1793,1790,1790,1787,1784,1781,1778,1775,1772,1769,1766,1763,1760,1757,1754,1751,1748,1745,1742,1736,1733,1730,1727,1724,1721,1718,1715,1712,1709,1706,1703,1700,1697,1697,1694,1694,1691,1688,1688,1685,1685,1682,1682,1679,1679,1679,1676,1676,1676,1673,1673,1673,1670,1670,1667,1667,1664,1664,1661,1658,1658,1655,1655,1652,1652,1649,1649,1646,1646,1643,1643,1640,1637,1634,1631,1631,1628,1625,1622,1619,1616,1613,1613,1610,1607,1607,1604,1604,1601,1601,1601,1598,1598,1598,1595,1595,1595,1595,1595,1592,1592,1592,1592,1589,1589,1589,1589,1586,1586,1586,1586,1583,1583,1583,1580,1580,1580,1577,1577,1577,1574,1574,1571,1571,1571,1568,1568,1568,1565,1565,1565,1562,1562,1562,1559,1559,1556,1553,1547,1544,1538,1535,1529,1526,1520,1517,1511,1508,1505,1499,1496,1490,1487,1481,1475,1469,1460,1454,1448,1439,1433,1430,1427,1424,1421,1415,1412,1409,1406,1403,1400,1394,1391,1388,1385,1382,1379,1373,1370,1367,1364,1361,1358,1355,1352,1349,1346,1343,1340,1337,1334,1331,1328,1325,1322,1316,1313,1310,1307,1304,1301,1298,1295,1292,1289,1286,1286,1283,1283,1280,1277,1271
1868,1865,1865,1862,1859,1856,1850,1847,1844,1841,1835,1832,1829,1823,1820,1814,1811,1805,1799,1796,1790,1787,1781,1778,1772,1769,1763,1760,1754,1751,1748,1745,1742,1739,1736,1733,1727,1724,1724,1724,1721,1721,1721,1721,1718,1718,1718,1718,1718,1718,1718,1718,1715,1715,1715,1715,1715,1715,1715,1715,1715,1715,1715,1715,1715,1715,1715,1712,1712,1712,1712,1709,1709,1709,1709,1709,1706,1706,1706,1706,1703,1703,1703,1700,1700,1697,1697,1697,1694,1694,1691,1691,1688,1688,1685,1685,1682,1682,1679,1679,1676,1676,1673,1673,1670,1670,1667,1667,1664,1664,1661,1658,1658,1655,1655,1652,1652,1652,1649,1649,1649,1649,1646,1646,1646,1643,1643,1643,1643,1643,1643,1643,1643,1643,1643,1643,1643,1640,1640,1640,1640,1643,1643,1643,1643,1646,1646,1649,1652,1652,1655,1658,1658,1661,1658,1658,1658,1655,1652,1649,1646,1643,1640,1640,1637,1634,1631,1628,1625,1622,1619,1616,1613,1610,1610,1607,1604,1604,1604,1607,1607,1607,1610,1610,1610,1610,1613,1613,1613,1616,1616,1619,1622,1625,1628,1631,1631,1634,1634,1637,1637,1640,1640,1640,1643,1643,1646,1646,1649,1649,1652,1652,1655,1655,1655,1658,1658,1658,1661,1661,1664,1667,1667,1670,1676,1679,1682,1685,1688,1694,1697,1700,1706,1712,1715,1718,1724,1730,1736,1739,1745,1751,1757,1763,1769,1778,1784,1790,1796,1802,1811,1817,1823,1829,1835,1841,1847,1853,1859,1865,1871,1877,1883,1889,1895,1898,1898,1901,1901,1904,1907,1907,1910,1907,1904,1901,1898,1895,1892,1889,1886,1883,1880,1877,1874,1868,1865,1862,1856,1850,1847,1841,1835,1832,1826,1823,1823,1820,1820,1817,1817,1817,1814,1814,1811,1811,1808,1802,1799,1796,1790,1787,1790,1793,1796,1799,1802,1805,1808,1814,1817,1817,1820,1823,1823,1826,1829,1832,1838,1841,1847,1850,1856,1859,1865,1868,1874,1877,1883,1886,1892,1895,1901,1904,1910,1913,1916,1916,1916,1916,1913,1910,1907,1901,1898,1892,1889,1886,1883,1877,1871,1865,1862,1859,1853,1850,1847,1844,1841,1838,1835,1829,1826,1823,1820,1817,1814,1811,1808,1808,1805,1802,1802,1799,1796,1796,1793,1790,1787,1784,1781,1778,1775,1772,1769,1766,1763,1760,1757,1754,1751,1748,1745,1742,1739,1736,1733,1727,1724,1721,1718,1715,1712,1709,1706,1703,1700,1697,1694,1694,1691,1691,1688,1688,1685,1682,1682,1679,1679,1679,1676,1676,1676,1673,1673,1673,1670,1670,1670,1667,1667,1664,1664,1661,1661,1658,1655,1655,1652,1652,1649,1649,1646,1646,1643,1643,1640,1637,1634,1631,1628,1625,1625,1622,1619,1616,1613,1610,1607,1607,1604,1604,1601,1601,1598,1598,1598,1595,1595,1595,1595,1592,1592,1592,1592,1589,1589,1589,1589,1586,1586,1586,1583,1583,1580,1580,1577,1577,1574,1574,1574,1571,1571,1568,1568,1568,1565,1565,1565,1562,1562,1562,1559,1559,1556,1556,1556,1553,1553,1553,1550,1550,1547,1544,1538,1535,1529,1526,1523,1517,1514,1508,1505,1499,1496,1493,1487,1484,1478,1472,1463,1457,1451,1442,1436,1430,1427,1424,1421,1418,1412,1409,1406,1403,1400,1397,1391,1388,1385,1382,1379,1376,1370,1367,1364,1361,1358,1355,1352,1349,1346,1343,1340,1337,1334,1331,1328,1325,1319,1316,1313,1310,1307,1304,1301,1298,1295,1292,1289,1286,1283,1280,1277,1277,1274,1271,1265
1871,1868,1868,1865,1862,1859,1853,1850,1847,1841,1838,1835,1832,1826,1823,1817,1814,1808,1805,1799,1793,1790,1784,1781,1775,1772,1766,1763,1757,1754,1751,1748,1745,1739,1736,1733,1730,1727,1724,1724,1724,1721,1721,1721,1721,1718,1718,1718,1718,1715,1718,1718,1715,1715,1715,1715,1715,1715,1715,1715,1715,1715,1715,1715,1712,1712,1712,1712,1712,1712,1709,1709,1709,1706,1706,1706,1706,1706,1703,1703,1703,1703,1700,1700,1697,1697,1694,1694,1691,1691,1688,1688,1685,1685,1682,1682,1679,1679,1676,1676,1673,1673,1670,1670,1667,1667,1664,1664,1661,1658,1658,1655,1655,1652,1649,1649,1649,1646,1646,1646,1646,1643,1643,1643,1643,1643,1643,1643,1643,1640,1640,1640,1640,1640,1640,1640,1640,1640,1637,1640,1640,1640,1640,1640,1640,1643,1643,1646,1649,1649,1652,1652,1655,1655,1655,1655,1655,1652,1649,1646,1643,1640,1640,1637,1634,1631,1628,1625,1622,1619,1616,1613,1613,1610,1607,1604,1601,1604,1604,1604,1607,1607,1607,1607,1610,1610,1610,1613,1613,1613,1613,1616,1619,1622,1625,1628,1631,1631,1631,1634,1634,1637,1637,1640,1640,1643,1643,1646,1646,1646,1649,1649,1652,1652,1652,1655,1655,1658,1658,1658,1661,1664,1667,1667,1673,1676,1679,1682,1688,1691,1694,1697,1700,1706,1712,1715,1721,1727,1733,1736,1742,1748,1754,1760,1766,1772,1781,1787,1793,1799,1805,1814,1820,1826,1832,1838,1844,1853,1859,1865,1871,1877,1883,1889,1892,1895,1895,1898,1901,1901,1904,1907,1907,1904,1901,1898,1895,1892,1889,1886,1883,1880,1877,1874,1871,1868,1865,1862,1856,1853,1847,1841,1838,1832,1826,1826,1823,1820,1820,1820,1817,1817,1814,1814,1811,1808,1802,1799,1796,1790,1787,1781,1784,1787,1790,1793,1796,1802,1805,1808,1811,1814,1817,1820,1823,1826,1826,1832,1838,1841,1847,1850,1856,1859,1865,1868,1874,1877,1883,1886,1892,1895,1898,1904,1907,1913,1916,1916,1916,1916,1916,1910,1907,1901,1898,1895,1892,1889,1883,1877,1871,1868,1865,1862,1859,1853,1850,1847,1844,1841,1838,1832,1829,1826,1823,1820,1817,1814,1811,1808,1808,1805,1802,1802,1799,1796,1796,1793,1790,1784,1781,1778,1775,1772,1769,1766,1763,1760,1757,1754,1751,1748,1745,1742,1739,1736,1733,1730,1727,1724,1718,1715,1712,1709,1706,1703,1700,1697,1694,1694,1691,1688,1688,1685,1685,1682,1682,1679,1679,1679,1676,1676,1676,1673,1673,1673,1670,1670,1670,1667,1667,1664,1664,1661,1661,1658,1658,1655,1652,1652,1649,1649,1646,1646,1643,1640,1637,1637,1634,1631,1628,1625,1622,1619,1619,1616,1613,1610,1607,1604,1604,1601,1601,1598,1598,1595,1595,1595,1592,1592,1592,1592,1589,1589,1589,1589,1586,1586,1586,1583,1583,1580,1580,1577,1577,1574,1574,1571,1571,1568,1568,1565,1565,1565,1562,1562,1559,1559,1559,1556,1556,1553,1553,1553,1550,1550,1547,1547,1547,1544,1544,1541,1541,1541,1535,1532,1526,1523,1517,1514,1511,1505,1502,1496,1493,1487,1484,1481,1475,1466,1460,1454,1445,1439,1433,1427,1424,1421,1418,1412,1409,1406,1403,1400,1397,1394,1388,1385,1382,1379,1376,1370,1367,1364,1361,1358,1355,1352,1349,1346,1343,1340,1337,1334,1331,1328,1322,1319,1316,1313,1310,1307,1304,1301,1298,1295,1292,1289,1286,1283,1277,1274,1274,1271,1271,1265,1259
1874,1871,1871,1868,1865,1859,1856,1853,1850,1844,1841,1838,1832,1829,1826,1820,1817,1811,1808,1802,1799,1793,1787,1784,1778,1775,1769,1766,1763,1760,1757,1754,1751,1745,1742,1736,1733,1727,1724,1724,1724,1724,1721,1721,1721,1721,1718,1718,1718,1718,1718,1715,1715,1715,1715,1715,1715,1715,1715,1715,1715,1715,1712,1712,1712,1712,1712,1712,1709,1709,1709,1709,1706,1706,1706,1706,1703,1703,1703,1703,1700,1700,1697,1697,1694,1694,1691,1691,1688,1688,1685,1685,1682,1682,1679,1679,1676,1676,1673,1673,1670,1670,1667,1667,1664,1664,1661,1661,1658,1655,1655,1652,1652,1649,1646,1646,1646,1643,1643,1643,1643,1640,1640,1640,1640,1640,1640,1640,1640,1640,1640,1640,1640,1640,1637,1637,1637,1637,1637,1637,1637,1637,1637,1637,1637,1640,1640,1643,1643,1646,1649,1649,1652,1652,1652,1652,1652,1649,1646,1643,1643,1640,1637,1634,1631,1628,1625,1622,1619,1616,1613,1613,1610,1607,1604,1604,1601,1601,1604,1604,1604,1604,1607,1607,1607,1610,1610,1610,1610,1613,1613,1613,1616,1619,1622,1625,1628,1628,1631,1631,1634,1634,1637,1637,1637,1640,1640,1643,1643,1646,1646,1646,1649,1649,1652,1652,1652,1655,1655,1658,1658,1661,1664,1667,1670,1673,1676,1679,1685,1688,1691,1694,1697,1703,1706,1712,1718,1721,1727,1733,1739,1745,1751,1757,1763,1769,1775,1784,1790,1796,1802,1808,1817,1823,1829,1835,1841,1847,1856,1862,1868,1874,1880,1886,1892,1892,1895,1895,1898,1901,1901,1904,1904,1901,1898,1895,1892,1889,1886,1883,1880,1877,1874,1871,1868,1865,1862,1859,1856,1853,1847,1844,1838,1832,1829,1826,1823,1820,1820,1820,1817,1817,1814,1811,1805,1802,1799,1793,1790,1787,1781,1778,1781,1781,1787,1790,1793,1796,1799,1802,1805,1811,1814,1817,1820,1823,1826,1832,1835,1841,1844,1850,1853,1859,1862,1868,1871,1877,1880,1886,1889,1895,1898,1904,1907,1913,1916,1916,1916,1916,1916,1910,1907,1904,1898,1895,1895,1892,1886,1880,1874,1871,1868,1865,1862,1856,1853,1850,1847,1844,1841,1838,1832,1829,1826,1823,1820,1817,1814,1811,1808,1808,1805,1802,1802,1799,1796,1793,1790,1787,1784,1781,1778,1772,1769,1766,1763,1760,1757,1754,1751,1748,1745,1742,1739,1736,1733,1730,1727,1724,1721,1718,1715,1709,1706,1703,1700,1697,1694,1691,1691,1688,1688,1685,1682,1682,1679,1679,1679,1676,1676,1676,1673,1673,1673,1670,1670,1670,1667,1667,1667,1664,1664,1661,1661,1658,1658,1655,1655,1652,1652,1649,1646,1646,1643,1640,1637,1634,1631,1631,1628,1625,1622,1619,1616,1616,1613,1610,1607,1604,1601,1601,1598,1598,1595,1595,1592,1592,1592,1589,1589,1589,1589,1586,1586,1583,1583,1580,1580,1577,1577,1574,1574,1571,1571,1568,1568,1565,1565,1562,1562,1559,1559,1559,1556,1556,1553,1553,1553,1550,1550,1547,1547,1547,1544,1544,1541,1541,1541,1538,1538,1535,1535,1535,1532,1529,1523,1520,1514,1511,1505,1502,1499,1493,1490,1484,1481,1475,1469,1463,1457,1448,1442,1436,1430,1424,1421,1415,1412,1409,1406,1403,1400,1397,1394,1388,1385,1382,1379,1376,1373,1367,1364,1361,1358,1355,1352,1349,1346,1343,1340,1337,1334,1328,1325,1322,1319,1316,1313,1310,1307,1304,1301,1298,1295,1292,1289,1286,1280,1277,1274,1271,1268,1265,1265,1259,1253
1877,1874,1874,1871,1868,1862,1859,1856,1853,1847,1844,1841,1835,1832,1826,1823,1820,1814,1811,1805,1802,1796,1793,1787,1784,1781,1775,1772,1769,1766,1760,1757,1751,1748,1742,1739,1733,1730,1724,1721,1721,1721,1721,1721,1718,1718,1718,1718,1718,1715,1715,1715,1715,1715,1715,1715,1715,1715,1712,1712,1712,1712,1712,1712,1712,1712,1709,1709,1709,1709,1706,1706,1706,1706,1703,1703,1703,1703,1700,1700,1697,1697,1694,1694,1691,1691,1688,1688,1685,1685,1682,1682,1679,1679,1676,1676,1673,1673,1670,1670,1667,1667,1664,1664,1661,1661,1658,1655,1655,1652,1652,1649,1646,1646,1643,1643,1643,1640,1640,1640,1637,1637,1637,1637,1637,1637,1637,1637,1637,1637,1637,1637,1637,1637,1637,1634,1634,1634,1634,1634,1634,1634,1634,1634,1637,1637,1637,1637,1640,1643,1643,1646,1649,1649,1649,1649,1649,1646,1643,1643,1640,1637,1634,1631,1628,1625,1622,1619,1616,1613,1613,1610,1607,1604,1604,1601,1601,1601,1601,1601,1604,1604,1604,1607,1607,1607,1607,1610,1610,1610,1613,1613,1613,1616,1619,1622,1625,1625,1628,1628,1631,1631,1634,1634,1637,1637,1640,1640,1640,1643,1643,1646,1646,1646,1649,1649,1649,1652,1652,1655,1655,1658,1661,1664,1667,1670,1673,1676,1682,1685,1688,1691,1697,1700,1703,1706,1712,1718,1724,1730,1736,1742,1748,1754,1760,1766,1772,1778,1787,1793,1799,1805,1811,1820,1826,1832,1838,1844,1850,1859,1865,1871,1877,1883,1889,1889,1892,1895,1895,1898,1901,1901,1904,1901,1898,1895,1892,1889,1886,1880,1877,1874,1871,1868,1865,1862,1859,1856,1853,1850,1847,1844,1838,1835,1829,1826,1823,1823,1820,1820,1817,1814,1811,1805,1802,1796,1793,1790,1784,1781,1778,1772,1775,1778,1781,1784,1787,1790,1796,1799,1802,1805,1808,1811,1814,1820,1826,1829,1835,1838,1844,1847,1853,1856,1862,1865,1871,1874,1880,1883,1889,1892,1898,1901,1907,1910,1916,1919,1919,1919,1916,1913,1907,1904,1901,1898,1895,1895,1889,1883,1877,1874,1871,1868,1865,1862,1856,1853,1850,1847,1844,1841,1835,1832,1829,1826,1823,1820,1814,1814,1811,1808,1808,1805,1802,1799,1796,1793,1790,1787,1784,1781,1778,1775,1772,1769,1763,1760,1757,1754,1751,1748,1745,1742,1739,1736,1733,1730,1727,1724,1721,1718,1715,1712,1709,1703,1700,1697,1694,1691,1688,1688,1685,1685,1682,1679,1679,1679,1676,1676,1676,1673,1673,1673,1670,1670,1670,1667,1667,1667,1664,1664,1664,1661,1661,1658,1658,1655,1655,1652,1652,1649,1646,1643,1643,1640,1637,1634,1631,1628,1628,1625,1622,1619,1616,1613,1610,1610,1607,1604,1601,1598,1598,1595,1595,1592,1592,1589,1589,1589,1586,1586,1583,1583,1580,1580,1577,1577,1574,1574,1571,1571,1568,1568,1565,1565,1562,1562,1559,1559,1556,1556,1553,1553,1550,1550,1547,1547,1547,1544,1544,1541,1541,1541,1538,1538,1535,1535,1535,1532,1532,1529,1529,1529,1526,1523,1520,1514,1511,1508,1502,1499,1493,1490,1484,1481,1478,1472,1466,1460,1451,1445,1439,1433,1427,1421,1418,1412,1409,1406,1403,1400,1397,1394,1388,1385,1382,1379,1376,1373,1370,1364,1361,1358,1355,1352,1349,1346,1343,1340,1334,1331,1328,1325,1322,1319,1316,1313,1310,1307,1304,1301,1298,1295,1292,1289,1283,1280,1277,1274,1271,1268,1265,1262,1259,1256,1253
