1365,1368,1374,1377,1380,1386,1389,1392,1398,1401,1407,1410,1413,1419,1422,1428,1431,1434,1440,1443,1446,1449,1452,1455,1458,1461,1464,1467,1473,1476,1479,1482,1485,1485,1488,1491,1491,1494,1497,1497,1500,1503,1506,1506,1509,1512,1512,1515,1515,1515,1518,1518,1518,1518,1521,1521,1521,1521,1521,1524,1524,1524,1524,1524,1524,1524,1524,1524,1521,1521,1521,1521,1521,1521,1521,1518,1518,1518,1515,1515,1515,1512,1506,1503,1497,1494,1491,1491,1488,1488,1488,1488,1491,1491,1488,1485,1479,1479,1479,1476,1476,1476,1482,1485,1488,1491,1491,1488,1485,1482,1482,1479,1476,1473,1473,1470,1470,1470,1467,1467,1467,1464,1467,1467,1467,1467,1467,1467,1467,1467,1470,1470,1473,1473,1476,1476,1476,1476,1476,1476,1476,1476,1476,1473,1473,1473,1473,1473,1473,1473,1473,1473,1470,1470,1470,1467,1464,1461,1461,1461,1458,1452,1443,1437,1428,1419,1413,1419,1425,1431,1437,1443,1449,1455,1461,1467,1470,1470,1473,1476,1476,1470,1461,1455,1416,1359,1326,1290,1251,1215,1185,1164,1152,1143,1134,1125,1119,1113,1107,1101,1095,1086,1080,1077,1071,1062,1050,1038,1026,1017,1005,996,972,963,960,957,954,951,948,948,948,948,951,951,951,951,948,948,945,945,942,942,939,939,939,936,936,936,933,933,933,930,930,933,933,933,933,933,933,933,933,933,933,936,936,936,936,939,939,936,933,930,930,927,927,924,924,921,921,918,918,915,915,912,912,909,906,906,906,906,906,906,906,906,906,906,906,906,906,906,906,903,903,900,897,897,894,894,891,891,888,885,882,876,873,870,870,867,867,864,861,858,858,855,855,855,855,855,855,855,852,852,852,855,858,858,858,855,855,852,852,852,849,849,849,849,849,849,846,846,846,846,846,846,843,843,843,843,843,840,840,840,840,840,840,840,840,840,840,840,840,840,840,837,837,837,837,837,837,837,837,837,837,837,837,834,834,834,834,831,831,831,831,831,831,831,831,831,831,831,831,831,831,831,831,831,831,831,831,831,831,831,831,831,831,831,831,831,831,831,831,831,828,828,828,828,828,828,828,828,828,828,828,825,825,825,825,825,825,825,825,825,825,822,822,822,822,822,822,822,822,822,822,822,822,822,822,822,822,822,822,822,822,822,822,822,822,822,822,819,819,819,819,819,819,819,819,819,819,819,819,819,819,819,822,822,822,822,822,822,822,822,822,822,822,822,822,822,822,822,825,825,825,828,828,831,834,834,837,840,843,846,849,852,852,855,858,861,864,867,867,870,873,873,885,897,909,918,930,942,954,972,987,999,1014,1026,1038,1050,1062,1074,1089,1104,1119,1131,1140,1152,1164,1173,1182,1191,1194,1200,1206,1209,1215,1218,1224,1227,1227,1230,1230,1233,1236,1236,1236,1239,1242,1242,1245,1245,1248,1251,1251,1254,1254,1257,1260,1263,1263,1266,1269,1269,1275,1281,1284,1284,1284,1284,1284,1284,1287,1287,1287,1290,1290,1290,1293,1293,1293,1293,1296,1296,1296,1299,1299,1299,1299,1299,1299,1299,1302,1305,1311,1314,1320
1362,1365,1368,1374,1377,1383,1386,1389,1395,1398,1401,1407,1410,1413,1419,1422,1428,1431,1434,1437,1443,1446,1449,1452,1455,1458,1461,1464,1467,1470,1476,1476,1479,1482,1485,1485,1488,1491,1491,1494,1497,1497,1500,1503,1503,1506,1509,1509,1512,1512,1512,1512,1512,1515,1515,1515,1515,1518,1518,1518,1518,1518,1518,1518,1518,1518,1518,1518,1518,1518,1518,1518,1515,1515,1515,1512,1512,1512,1509,1509,1509,1509,1503,1500,1494,1491,1488,1485,1485,1485,1485,1485,1485,1485,1485,1479,1479,1476,1476,1476,1473,1473,1473,1476,1479,1479,1482,1482,1479,1476,1476,1473,1470,1470,1467,1464,1464,1464,1464,1461,1461,1458,1458,1458,1458,1458,1458,1461,1461,1464,1464,1464,1467,1467,1470,1470,1473,1473,1473,1473,1473,1473,1473,1473,1473,1473,1470,1470,1470,1470,1470,1470,1470,1467,1464,1461,1461,1458,1458,1452,1446,1440,1431,1422,1413,1407,1401,1398,1407,1422,1428,1434,1440,1446,1452,1458,1461,1464,1467,1467,1467,1464,1452,1410,1377,1344,1308,1266,1194,1176,1155,1134,1122,1116,1110,1104,1098,1092,1086,1080,1071,1065,1059,1047,1035,1026,1014,1002,990,978,966,957,954,951,948,945,942,942,942,939,939,942,945,945,942,942,939,939,939,936,936,933,933,930,930,927,927,927,924,924,924,924,924,927,927,927,927,927,927,927,927,927,927,927,927,927,930,930,930,927,924,924,921,921,918,918,915,915,912,912,909,909,906,906,903,903,900,900,900,903,903,903,903,903,903,903,903,903,903,903,903,900,900,897,897,894,894,891,891,888,885,882,876,873,870,867,864,864,861,861,858,858,855,855,852,852,852,852,852,852,852,852,852,852,855,855,852,852,852,849,849,849,849,849,846,846,846,846,846,846,843,843,843,843,843,843,843,843,840,840,840,840,840,840,840,840,840,840,840,840,840,840,837,837,837,837,837,837,837,837,837,837,837,837,837,834,834,834,834,831,831,831,831,831,831,831,831,831,831,831,831,831,831,831,831,831,831,831,831,831,831,831,831,831,831,831,831,831,831,831,831,831,828,828,828,828,828,828,828,828,828,828,828,825,825,825,825,825,825,825,825,825,825,822,822,822,822,822,822,822,822,822,822,822,822,822,822,822,822,822,822,822,822,822,822,822,822,822,822,822,822,822,822,822,822,822,822,822,822,822,822,822,822,822,822,822,825,825,825,825,825,825,825,825,825,825,825,825,828,828,831,831,831,834,834,837,840,840,843,846,849,852,852,855,858,861,864,867,867,870,873,876,879,888,900,915,927,939,951,963,975,993,1008,1020,1035,1047,1059,1071,1083,1095,1107,1119,1134,1149,1161,1173,1182,1191,1197,1203,1206,1212,1218,1221,1227,1230,1233,1236,1236,1239,1239,1242,1242,1242,1242,1245,1245,1248,1251,1251,1254,1257,1257,1260,1260,1263,1266,1266,1269,1272,1275,1278,1281,1287,1293,1293,1293,1293,1293,1293,1293,1293,1293,1293,1296,1296,1296,1296,1296,1299,1299,1299,1302,1302,1305,1305,1305,1305,1305,1305,1308,1311,1317,1323,1329
1359,1365,1368,1371,1374,1380,1383,1386,1389,1395,1398,1401,1407,1410,1416,1419,1422,1428,1431,1434,1437,1443,1446,1449,1452,1455,1458,1461,1464,1467,1470,1473,1476,1476,1479,1482,1485,1485,1488,1491,1491,1494,1497,1497,1500,1503,1503,1506,1506,1506,1506,1506,1509,1509,1509,1509,1509,1512,1512,1512,1512,1512,1512,1512,1512,1512,1512,1512,1512,1512,1512,1512,1512,1509,1509,1509,1506,1506,1506,1503,1503,1503,1500,1497,1491,1488,1485,1479,1479,1479,1482,1482,1482,1482,1479,1476,1476,1476,1473,1473,1470,1470,1470,1470,1473,1473,1476,1476,1473,1473,1470,1467,1467,1464,1461,1461,1458,1458,1458,1455,1452,1452,1452,1452,1452,1452,1452,1455,1455,1458,1458,1461,1461,1464,1464,1464,1467,1467,1467,1467,1467,1467,1467,1467,1467,1467,1467,1467,1467,1467,1467,1467,1467,1464,1461,1458,1458,1455,1446,1440,1431,1425,1419,1410,1401,1395,1389,1386,1383,1398,1410,1425,1431,1437,1443,1449,1452,1458,1461,1461,1458,1446,1428,1395,1362,1299,1203,1182,1164,1140,1110,1095,1086,1080,1074,1065,1059,1053,1047,1041,1032,1020,1011,1002,990,981,972,960,954,951,948,945,942,939,936,936,933,933,933,930,933,933,933,936,936,933,933,930,930,927,927,927,924,924,921,921,918,918,918,918,918,918,918,921,921,921,921,921,921,921,921,921,921,921,921,921,921,921,921,918,918,915,915,912,912,909,909,906,906,903,903,900,900,897,897,894,894,897,897,897,900,900,900,897,897,897,897,900,900,900,900,897,897,894,894,891,891,888,888,885,882,879,873,870,864,861,858,858,855,855,855,855,852,852,852,849,849,849,849,849,849,849,852,852,852,849,849,849,849,849,849,849,846,846,846,846,846,846,846,843,843,843,843,843,843,843,843,840,840,840,840,840,840,840,840,840,840,840,840,840,840,840,837,837,837,837,837,837,837,837,837,837,837,837,837,834,834,834,834,831,831,831,831,831,831,831,831,831,831,831,831,831,831,831,831,831,831,831,831,831,831,831,831,831,831,831,831,831,831,831,831,831,828,828,828,828,828,828,828,828,828,828,828,825,825,825,825,825,825,825,825,825,825,825,822,822,822,822,822,822,822,822,822,822,822,822,822,822,822,822,822,822,822,822,822,822,822,822,822,822,822,822,822,822,822,822,822,822,822,822,825,825,825,825,825,825,825,828,828,828,828,828,828,828,828,831,831,831,834,834,837,837,837,840,840,843,846,846,849,852,855,858,858,861,864,867,870,870,873,876,879,888,894,903,912,924,939,954,969,981,993,1011,1029,1041,1059,1068,1080,1092,1104,1116,1128,1140,1152,1164,1176,1191,1200,1206,1209,1215,1221,1224,1230,1236,1239,1239,1242,1242,1245,1245,1248,1248,1248,1245,1248,1248,1251,1254,1254,1257,1260,1260,1263,1266,1266,1269,1272,1272,1275,1278,1281,1284,1287,1293,1299,1302,1302,1299,1299,1299,1299,1299,1299,1302,1302,1302,1302,1302,1305,1305,1305,1305,1305,1308,1308,1308,1308,1308,1311,1311,1314,1320,1326,1332,1335
1359,1362,1365,1368,1371,1377,1380,1383,1386,1392,1395,1398,1401,1407,1410,1416,1419,1422,1428,1431,1434,1437,1440,1446,1449,1452,1455,1458,1461,1464,1467,1470,1470,1473,1476,1476,1479,1482,1485,1485,1488,1491,1491,1494,1497,1497,1500,1500,1500,1500,1503,1503,1503,1503,1503,1503,1506,1506,1506,1506,1506,1506,1506,1506,1506,1506,1506,1506,1506,1506,1506,1506,1506,1503,1503,1503,1500,1500,1500,1497,1497,1497,1497,1494,1488,1485,1482,1479,1476,1476,1476,1476,1476,1479,1476,1473,1473,1473,1470,1470,1467,1467,1467,1464,1467,1470,1470,1467,1467,1467,1464,1464,1461,1458,1458,1455,1455,1455,1452,1449,1446,1446,1446,1446,1446,1446,1449,1449,1452,1452,1455,1455,1458,1458,1458,1461,1461,1464,1464,1464,1464,1464,1464,1464,1464,1464,1464,1464,1464,1464,1464,1461,1461,1458,1455,1455,1446,1440,1434,1425,1419,1410,1404,1395,1389,1383,1380,1377,1371,1371,1386,1398,1413,1425,1431,1437,1443,1449,1452,1440,1422,1407,1392,1335,1227,1191,1167,1140,1110,1083,1071,1059,1047,1041,1035,1026,1020,1014,1005,993,984,975,972,966,960,957,951,948,945,939,936,933,930,927,927,927,924,924,924,924,924,924,924,924,927,924,924,924,921,921,918,918,915,915,915,915,912,912,912,909,912,912,912,915,915,915,915,915,915,915,915,915,915,915,915,915,915,915,915,912,909,909,906,906,903,903,900,900,897,897,894,894,891,891,888,888,891,894,894,894,894,894,894,894,894,894,894,897,897,897,897,894,894,891,891,888,888,885,885,885,879,876,870,867,861,858,855,852,852,852,852,849,849,849,849,846,846,846,849,849,849,849,849,849,849,849,849,849,849,849,849,846,846,846,846,846,846,846,843,843,843,843,843,843,843,843,840,840,840,840,840,840,840,840,840,840,840,840,840,840,840,837,837,837,837,837,837,837,837,837,837,837,837,837,837,834,834,834,834,831,831,831,831,831,831,831,831,831,831,831,831,831,831,831,831,831,831,831,831,831,831,831,831,831,831,831,831,831,831,831,831,831,828,828,828,828,828,828,828,828,828,828,828,825,825,825,825,825,825,825,825,825,825,825,822,822,822,822,822,822,822,822,822,822,822,822,822,822,822,822,822,822,822,822,822,822,822,822,822,822,822,822,822,822,825,825,825,825,825,825,828,828,828,828,828,828,828,828,831,831,831,831,834,834,834,834,837,837,837,840,840,843,843,846,846,849,852,855,855,858,861,864,864,867,870,873,876,876,879,882,888,897,909,918,927,933,948,963,981,996,1011,1029,1047,1062,1077,1089,1101,1113,1125,1137,1149,1161,1173,1185,1197,1206,1212,1218,1224,1227,1233,1239,1242,1245,1245,1248,1251,1251,1254,1254,1254,1251,1251,1251,1251,1254,1257,1257,1260,1263,1263,1266,1269,1272,1272,1275,1275,1278,1281,1284,1287,1290,1296,1299,1305,1308,1308,1305,1305,1305,1305,1305,1305,1308,1308,1308,1308,1311,1311,1311,1314,1314,1311,1311,1311,1314,1314,1314,1314,1314,1317,1323,1332,1335,1344
1356,1359,1362,1365,1368,1374,1377,1380,1383,1389,1392,1395,1398,1404,1407,1410,1416,1419,1422,1428,1431,1434,1437,1440,1443,1449,1452,1455,1458,1461,1464,1464,1467,1470,1470,1473,1476,1476,1479,1479,1482,1485,1485,1488,1491,1491,1494,1494,1494,1494,1497,1497,1497,1497,1497,1500,1500,1500,1500,1500,1500,1500,1500,1500,1500,1500,1500,1500,1500,1500,1500,1500,1497,1500,1497,1497,1497,1494,1494,1494,1491,1491,1491,1488,1485,1482,1479,1476,1473,1470,1473,1473,1473,1473,1473,1473,1470,1470,1467,1467,1464,1464,1464,1461,1461,1464,1461,1461,1461,1458,1458,1458,1455,1455,1452,1449,1449,1446,1443,1440,1437,1437,1437,1440,1440,1440,1443,1443,1446,1446,1449,1449,1452,1452,1455,1455,1455,1458,1458,1458,1458,1458,1458,1458,1458,1458,1458,1458,1458,1458,1458,1455,1455,1452,1446,1440,1434,1428,1419,1413,1404,1398,1389,1383,1374,1365,1362,1359,1356,1350,1347,1371,1386,1398,1410,1416,1425,1422,1419,1410,1392,1356,1260,1197,1167,1140,1110,1080,1059,1047,1032,1020,1008,1002,996,993,987,984,978,972,969,963,957,954,948,945,942,939,936,930,924,921,921,918,918,918,918,918,918,918,915,915,915,915,918,918,915,915,912,912,912,912,909,909,909,906,906,906,906,903,903,906,906,909,909,909,909,909,909,909,909,909,909,909,909,909,912,909,909,906,903,900,900,897,897,894,894,891,891,888,888,885,885,882,882,885,885,888,888,891,891,891,891,891,891,891,891,894,894,894,891,891,888,888,885,885,885,885,882,882,876,873,867,864,858,858,858,855,855,852,852,849,849,849,846,846,846,846,846,849,849,849,849,849,849,849,849,849,849,849,849,846,846,846,846,846,846,843,843,843,843,843,843,843,843,843,840,840,840,840,840,840,840,840,840,840,840,840,840,840,840,837,837,837,837,837,837,837,837,837,837,837,837,837,837,837,834,834,834,831,831,831,831,831,831,834,834,834,831,831,831,831,831,831,831,831,831,831,831,834,831,831,831,831,831,831,831,831,831,831,831,828,828,828,828,828,828,828,828,828,828,828,825,825,825,825,825,825,825,825,825,825,825,825,822,822,822,822,822,822,822,825,825,825,825,825,825,825,825,825,825,825,825,825,825,825,825,825,825,825,825,825,825,825,825,825,828,828,828,828,828,831,831,831,831,831,831,834,834,837,837,840,840,840,840,840,840,843,843,843,846,849,849,852,852,855,855,858,861,864,867,870,870,873,876,879,882,882,885,888,891,900,912,924,936,945,960,978,996,1014,1032,1050,1068,1083,1095,1110,1122,1134,1146,1158,1170,1182,1194,1203,1209,1215,1224,1230,1236,1242,1245,1251,1251,1254,1254,1257,1257,1260,1260,1257,1257,1257,1257,1257,1257,1260,1260,1263,1266,1266,1269,1272,1272,1275,1278,1281,1284,1287,1287,1290,1293,1296,1302,1305,1308,1311,1314,1314,1311,1311,1311,1311,1314,1314,1314,1314,1314,1317,1317,1317,1320,1323,1320,1320,1320,1317,1317,1317,1320,1320,1320,1326,1332,1338,1344
1353,1356,1359,1362,1365,1371,1374,1377,1380,1386,1389,1392,1395,1401,1404,1407,1410,1416,1419,1422,1428,1431,1434,1437,1440,1443,1446,1452,1452,1455,1458,1461,1461,1464,1464,1467,1467,1470,1470,1473,1473,1476,1479,1482,1485,1488,1488,1488,1488,1491,1491,1491,1491,1491,1494,1494,1494,1494,1494,1497,1494,1494,1494,1494,1494,1494,1494,1494,1494,1494,1494,1491,1491,1491,1491,1491,1491,1488,1488,1488,1485,1485,1485,1485,1482,1479,1479,1473,1470,1467,1467,1467,1470,1470,1470,1470,1467,1467,1464,1464,1461,1461,1461,1458,1458,1455,1455,1455,1452,1452,1452,1449,1449,1449,1446,1446,1443,1440,1437,1434,1431,1431,1431,1434,1434,1437,1437,1440,1440,1443,1443,1446,1446,1449,1449,1449,1449,1452,1452,1452,1452,1455,1455,1455,1455,1455,1455,1455,1455,1452,1452,1449,1446,1440,1434,1428,1419,1413,1404,1398,1389,1380,1371,1362,1353,1344,1335,1329,1323,1317,1311,1302,1311,1314,1314,1311,1311,1311,1311,1311,1203,1173,1164,1137,1110,1080,1050,1035,1023,1008,996,981,969,969,972,972,975,969,966,960,954,951,945,939,939,936,933,930,927,924,918,915,912,912,912,909,912,912,912,912,912,912,912,912,909,909,909,909,906,906,906,906,903,903,903,903,900,900,900,897,897,900,900,903,903,903,903,903,903,903,903,903,903,906,906,906,906,903,903,903,900,897,894,891,888,888,885,885,882,882,879,879,876,876,879,879,882,885,885,885,885,885,888,888,888,888,888,891,891,891,888,888,885,885,885,882,882,882,882,879,876,870,864,861,861,861,858,858,855,855,855,852,852,849,849,846,846,846,846,846,846,846,849,849,849,849,849,849,849,849,846,846,846,846,846,846,846,843,843,843,843,843,843,843,843,840,840,840,840,840,840,840,840,840,840,840,840,840,840,840,840,837,837,837,837,837,837,837,837,837,837,837,837,837,837,837,834,834,834,834,834,834,831,831,834,834,834,834,834,834,834,834,834,834,831,831,831,834,834,834,834,831,831,831,831,831,831,831,831,831,828,828,828,828,828,828,828,828,828,828,828,828,825,825,825,825,825,825,825,825,825,825,825,825,825,825,825,825,825,825,825,825,825,825,825,825,825,825,825,825,825,825,825,825,825,825,825,828,828,828,828,828,828,828,828,828,831,831,831,831,831,834,834,837,837,837,840,840,843,843,846,846,846,846,846,846,846,846,849,849,852,852,855,858,858,858,861,864,867,870,873,876,879,879,882,885,888,888,891,894,897,900,912,930,948,969,984,999,1017,1035,1050,1068,1086,1104,1116,1128,1143,1155,1167,1179,1191,1200,1206,1212,1221,1227,1236,1245,1248,1254,1257,1257,1260,1263,1263,1266,1266,1263,1263,1263,1263,1263,1263,1263,1263,1263,1266,1269,1269,1272,1275,1275,1278,1281,1284,1287,1290,1296,1296,1299,1302,1305,1305,1308,1311,1314,1317,1320,1317,1317,1317,1317,1320,1320,1320,1320,1323,1323,1323,1323,1326,1329,1329,1329,1326,1326,1326,1326,1326,1326,1326,1326,1332,1341,1347
1350,1353,1356,1359,1365,1368,1371,1374,1377,1383,1386,1389,1392,1398,1401,1404,1407,1413,1416,1419,1425,1428,1431,1434,1437,1440,1443,1446,1449,1452,1455,1455,1458,1458,1461,1461,1464,1464,1467,1470,1470,1473,1476,1479,1479,1482,1482,1482,1485,1485,1485,1485,1488,1488,1488,1488,1488,1491,1491,1491,1491,1488,1488,1488,1488,1488,1488,1488,1488,1488,1485,1485,1485,1485,1485,1485,1485,1485,1482,1482,1479,1479,1479,1479,1479,1476,1473,1470,1467,1467,1464,1464,1464,1464,1464,1464,1464,1464,1461,1461,1458,1458,1455,1455,1455,1452,1452,1449,1449,1446,1446,1446,1443,1443,1440,1440,1437,1434,1431,1428,1425,1425,1428,1428,1431,1431,1431,1434,1434,1437,1437,1440,1440,1440,1443,1443,1443,1446,1446,1446,1449,1449,1449,1449,1449,1449,1449,1449,1449,1446,1443,1437,1431,1425,1419,1413,1404,1398,1389,1380,1371,1362,1353,1344,1332,1320,1302,1281,1266,1257,1251,1242,1233,1221,1206,1191,1176,1161,1146,1134,1122,1110,1101,1080,1050,1023,1011,996,984,969,957,954,954,954,954,954,957,957,951,948,942,936,933,933,930,927,924,921,918,915,909,906,906,906,903,903,906,909,909,906,906,906,906,906,906,906,906,903,903,900,900,900,900,897,897,897,897,894,894,894,891,894,897,897,897,897,897,897,897,897,900,900,900,900,900,900,900,900,897,897,894,891,891,888,885,882,879,876,876,873,873,870,870,873,873,876,876,879,882,882,882,882,885,885,885,885,885,885,888,888,885,885,885,882,882,882,879,879,879,876,873,867,861,861,861,858,858,858,855,855,852,852,852,849,849,849,846,846,846,846,846,846,846,846,849,849,849,849,849,846,846,846,846,846,846,846,843,843,843,843,843,843,843,843,840,840,840,840,840,840,840,840,837,837,837,837,837,837,837,837,837,837,837,837,837,837,837,837,837,837,837,837,837,837,837,837,834,834,834,834,834,834,834,834,834,834,834,834,834,834,834,834,834,834,834,831,834,834,834,834,834,831,831,831,831,831,831,831,831,828,828,828,828,828,828,828,828,828,828,828,828,828,825,825,825,825,825,825,825,825,825,825,825,825,825,825,825,825,825,825,825,825,825,825,825,825,825,825,825,825,825,825,828,828,828,828,828,828,828,828,831,831,831,831,831,831,834,834,834,837,837,840,840,843,843,846,846,849,849,852,852,852,852,852,852,852,852,852,852,855,855,858,861,864,864,864,867,870,873,876,879,882,885,885,888,891,894,894,897,900,906,921,936,954,972,993,1008,1023,1038,1053,1071,1089,1104,1122,1137,1149,1161,1173,1188,1197,1203,1212,1218,1224,1230,1239,1245,1254,1260,1263,1266,1266,1269,1269,1272,1272,1269,1269,1269,1269,1269,1269,1269,1269,1266,1269,1272,1272,1275,1278,1278,1281,1284,1287,1293,1296,1299,1305,1308,1308,1311,1311,1314,1314,1314,1317,1320,1323,1323,1323,1323,1326,1326,1326,1326,1329,1329,1329,1329,1332,1332,1335,1338,1338,1335,1335,1335,1335,1335,1335,1335,1338,1341,1344,1350
1347,1350,1353,1356,1362,1365,1368,1371,1374,1380,1383,1386,1389,1395,1398,1401,1404,1410,1413,1416,1419,1425,1428,1431,1434,1437,1440,1443,1446,1446,1449,1452,1455,1455,1458,1458,1458,1461,1464,1464,1467,1470,1473,1473,1476,1476,1479,1479,1479,1479,1479,1482,1482,1482,1482,1485,1485,1485,1485,1488,1485,1485,1485,1482,1482,1482,1482,1482,1482,1482,1479,1479,1479,1479,1479,1479,1479,1476,1476,1476,1476,1476,1473,1476,1473,1470,1467,1467,1464,1461,1458,1458,1458,1461,1461,1461,1461,1458,1458,1458,1455,1455,1452,1452,1449,1449,1449,1446,1446,1443,1443,1440,1440,1437,1437,1434,1434,1431,1428,1425,1422,1419,1419,1419,1419,1422,1425,1425,1428,1431,1431,1434,1434,1434,1434,1437,1437,1437,1440,1440,1440,1443,1443,1443,1446,1446,1446,1443,1443,1437,1431,1425,1419,1413,1404,1395,1389,1380,1371,1362,1350,1338,1329,1317,1308,1287,1266,1245,1224,1203,1188,1182,1173,1161,1146,1134,1119,1104,1089,1077,1065,1050,1038,1020,999,987,975,963,951,945,945,945,942,942,942,939,939,939,939,933,930,927,927,924,921,918,915,912,909,906,903,900,900,897,897,897,900,903,903,903,903,903,903,903,903,903,903,900,900,897,897,894,894,894,891,891,891,891,888,888,888,888,891,891,891,891,891,894,894,894,894,897,897,897,897,894,894,894,891,891,891,888,885,882,879,876,876,873,870,867,864,864,867,867,870,870,870,873,873,873,876,876,876,879,879,879,882,882,882,885,882,882,882,882,879,879,879,876,876,873,870,864,861,858,858,858,855,855,855,852,852,849,849,849,846,846,846,846,846,846,846,846,846,846,846,846,849,849,849,846,846,846,846,846,846,843,843,843,843,843,843,843,843,843,840,840,840,840,840,840,840,840,837,837,837,837,837,837,837,837,837,837,837,837,837,837,837,837,837,837,837,837,837,837,837,837,834,834,834,834,834,834,834,834,834,834,834,834,834,834,834,834,834,834,834,834,834,834,834,834,834,834,831,831,831,831,831,831,828,828,828,828,828,828,828,828,828,828,828,828,828,828,825,825,825,825,825,825,825,825,825,825,825,825,825,825,825,825,825,825,825,825,825,825,825,825,825,825,825,828,828,828,831,831,831,831,831,831,831,831,831,834,834,834,834,834,837,837,840,840,843,843,846,846,849,852,852,855,855,858,858,858,858,858,858,858,858,858,858,861,861,864,867,867,870,870,873,876,879,882,885,888,891,894,894,897,900,903,903,918,933,948,963,978,996,1014,1032,1047,1062,1077,1092,1107,1125,1143,1158,1170,1182,1194,1203,1209,1215,1221,1227,1233,1239,1248,1254,1260,1266,1269,1269,1272,1275,1278,1278,1275,1275,1275,1275,1275,1275,1275,1272,1272,1272,1275,1275,1278,1281,1281,1284,1287,1293,1296,1299,1305,1308,1311,1314,1317,1317,1320,1320,1320,1323,1323,1326,1326,1329,1329,1329,1332,1332,1332,1332,1335,1335,1335,1338,1338,1341,1341,1344,1347,1347,1347,1347,1347,1347,1347,1347,1347,1350,1353,1359
1344,1347,1350,1353,1359,1362,1365,1368,1371,1377,1380,1383,1386,1392,1395,1398,1401,1407,1410,1413,1416,1422,1425,1428,1431,1431,1434,1437,1440,1443,1446,1449,1449,1452,1452,1455,1455,1458,1458,1461,1464,1464,1467,1470,1473,1473,1473,1473,1473,1476,1476,1476,1476,1476,1479,1479,1479,1479,1482,1482,1482,1482,1479,1479,1476,1476,1476,1476,1476,1473,1473,1473,1473,1473,1473,1473,1473,1473,1473,1473,1470,1470,1470,1470,1467,1467,1464,1461,1458,1458,1455,1455,1455,1455,1455,1455,1458,1455,1455,1452,1452,1452,1449,1449,1446,1446,1443,1443,1440,1440,1437,1437,1434,1434,1431,1431,1428,1428,1425,1422,1419,1416,1413,1413,1413,1413,1413,1416,1419,1422,1422,1425,1428,1428,1428,1431,1431,1431,1434,1434,1434,1437,1437,1437,1440,1440,1440,1434,1428,1422,1416,1410,1401,1395,1386,1380,1368,1359,1347,1335,1323,1314,1305,1293,1275,1254,1233,1209,1188,1167,1146,1122,1110,1101,1089,1074,1059,1047,1032,1020,1005,993,987,978,966,954,942,936,936,936,933,933,933,930,930,930,930,930,927,927,924,921,918,915,912,909,906,903,903,900,897,897,894,894,891,891,894,897,900,900,900,900,897,897,897,897,897,897,897,894,894,891,891,888,888,885,885,885,885,882,882,885,885,885,888,888,888,888,891,891,891,894,891,891,891,888,888,888,885,885,885,882,882,879,876,873,870,867,864,861,861,861,861,861,861,861,864,864,864,864,867,867,867,870,870,870,873,876,879,882,882,879,879,879,876,876,876,876,873,870,864,861,858,858,858,855,855,852,852,852,849,849,849,846,846,846,846,843,843,843,843,846,846,846,846,846,846,846,846,846,846,846,846,846,846,843,843,843,843,843,843,843,843,840,840,840,840,840,840,840,840,837,837,837,837,837,837,837,837,837,837,837,837,837,837,837,837,837,837,837,837,837,837,837,837,837,834,834,834,834,834,834,834,834,834,834,834,834,834,834,834,834,834,834,834,834,834,834,834,834,834,834,831,831,831,831,831,831,828,828,828,828,828,828,828,828,828,828,828,828,828,828,825,825,825,825,825,825,825,825,825,825,825,825,825,825,825,825,825,825,825,828,828,828,828,828,828,828,828,831,831,831,834,834,834,834,834,834,834,834,834,837,837,837,840,840,840,843,843,846,846,849,852,852,855,858,858,861,861,864,864,864,864,864,864,864,864,864,864,864,867,867,870,873,876,876,879,882,885,888,891,894,897,900,900,903,906,912,924,945,960,975,990,1005,1020,1038,1059,1071,1086,1101,1116,1131,1146,1161,1179,1191,1200,1206,1212,1218,1224,1230,1239,1245,1248,1254,1257,1263,1269,1272,1275,1278,1278,1281,1284,1281,1281,1281,1281,1278,1278,1278,1278,1278,1278,1278,1281,1284,1284,1287,1293,1296,1299,1305,1308,1311,1314,1317,1320,1323,1326,1326,1326,1329,1329,1332,1332,1335,1335,1335,1338,1338,1338,1338,1341,1341,1341,1341,1344,1344,1347,1350,1353,1353,1356,1356,1356,1356,1356,1356,1356,1359,1362,1365,1368
1341,1347,1350,1353,1356,1359,1362,1365,1368,1374,1377,1380,1383,1389,1392,1395,1398,1404,1407,1410,1413,1419,1422,1425,1428,1428,1431,1434,1437,1440,1440,1443,1446,1449,1449,1452,1452,1452,1455,1458,1458,1461,1464,1464,1467,1467,1467,1470,1470,1470,1470,1470,1473,1473,1473,1473,1476,1476,1476,1476,1479,1476,1476,1473,1473,1473,1470,1470,1467,1467,1467,1467,1467,1467,1467,1467,1467,1467,1467,1467,1467,1464,1464,1467,1464,1461,1458,1458,1455,1452,1452,1452,1452,1452,1452,1452,1452,1452,1452,1449,1449,1446,1446,1443,1443,1440,1440,1437,1437,1434,1434,1431,1431,1428,1425,1425,1425,1422,1419,1419,1416,1413,1410,1407,1407,1407,1407,1407,1410,1413,1416,1419,1422,1422,1422,1422,1425,1425,1425,1428,1428,1428,1431,1431,1431,1428,1425,1419,1413,1407,1401,1392,1383,1374,1362,1353,1341,1329,1320,1308,1299,1290,1281,1263,1239,1218,1197,1176,1155,1131,1110,1089,1065,1044,1029,1017,1002,993,984,975,969,972,963,951,936,930,930,927,927,927,927,927,924,924,924,924,924,924,921,921,918,915,915,912,909,906,903,900,897,897,894,891,888,888,885,885,888,891,894,894,894,894,894,894,894,894,894,894,894,891,891,888,888,885,885,882,879,879,879,879,879,882,882,882,882,885,885,885,888,888,888,888,888,885,885,885,882,882,882,879,879,879,876,873,870,867,867,864,861,861,861,861,861,861,861,861,861,861,861,861,864,864,864,864,864,864,867,873,876,879,882,879,879,876,873,873,873,870,870,867,861,858,858,855,855,855,852,852,849,849,849,846,846,846,846,846,843,843,843,843,843,843,843,846,846,846,846,846,846,846,846,846,846,846,843,843,843,843,843,843,843,843,840,840,840,840,840,840,840,840,837,837,837,837,837,837,837,837,837,837,837,837,837,837,837,837,837,837,837,837,837,837,837,837,837,837,834,834,834,834,834,834,834,834,834,834,834,834,834,834,834,834,834,834,834,834,834,834,834,834,834,834,831,831,831,831,831,828,828,828,828,828,828,828,828,828,828,828,828,828,828,828,825,825,825,825,825,825,825,825,825,825,825,828,828,828,828,828,828,828,828,828,828,828,828,828,828,831,831,831,834,834,834,834,834,834,837,837,837,837,837,840,840,843,843,846,846,846,849,849,852,855,855,858,861,864,864,867,867,870,873,873,870,870,870,870,870,870,870,870,870,873,876,879,882,882,885,888,891,894,897,900,903,906,909,912,924,933,945,957,981,1002,1017,1029,1044,1062,1080,1095,1110,1125,1140,1155,1170,1185,1197,1206,1212,1218,1227,1233,1239,1245,1254,1254,1254,1257,1260,1266,1272,1275,1278,1281,1284,1284,1287,1287,1287,1287,1287,1284,1284,1284,1284,1284,1284,1284,1284,1287,1293,1296,1299,1302,1308,1311,1314,1317,1320,1326,1329,1329,1332,1332,1335,1335,1335,1338,1338,1341,1341,1344,1344,1347,1347,1347,1347,1350,1350,1350,1350,1350,1353,1356,1359,1362,1362,1362,1365,1365,1365,1365,1365,1368,1371,1374,1380
1335,1341,1347,1350,1353,1356,1359,1362,1365,1371,1374,1377,1380,1386,1389,1392,1395,1401,1404,1407,1410,1416,1419,1422,1425,1425,1428,1431,1434,1434,1437,1440,1443,1443,1446,1446,1449,1449,1452,1452,1455,1458,1458,1461,1461,1461,1464,1464,1464,1464,1467,1467,1467,1467,1470,1470,1470,1470,1470,1473,1473,1473,1470,1470,1470,1467,1467,1464,1464,1461,1461,1461,1461,1461,1461,1461,1461,1464,1464,1461,1461,1458,1461,1461,1458,1458,1455,1452,1449,1449,1449,1449,1449,1449,1449,1449,1449,1449,1446,1446,1443,1443,1440,1440,1437,1434,1434,1431,1431,1428,1428,1425,1425,1422,1422,1419,1419,1419,1416,1413,1410,1407,1407,1404,1404,1404,1404,1401,1401,1404,1407,1410,1413,1416,1416,1416,1416,1419,1419,1419,1422,1422,1422,1419,1416,1413,1407,1404,1398,1386,1377,1365,1353,1344,1332,1323,1314,1308,1296,1284,1278,1266,1248,1227,1206,1185,1161,1140,1119,1098,1077,1059,1035,1005,990,975,963,954,951,954,957,948,933,924,924,924,924,921,921,921,921,921,918,918,918,918,918,915,915,915,915,912,909,906,903,900,900,897,894,891,891,888,885,882,882,879,882,885,888,891,891,891,891,891,891,891,888,888,888,888,888,885,885,882,882,879,876,876,873,876,876,879,879,879,882,882,882,882,882,885,882,882,882,879,879,879,876,876,876,873,873,873,870,870,867,864,861,861,861,861,858,858,858,858,858,858,858,861,861,861,861,861,861,861,861,864,864,867,873,876,876,870,870,870,870,870,870,867,867,864,858,858,855,855,852,852,852,849,849,849,846,846,846,846,846,843,843,843,843,843,846,843,843,843,843,846,846,846,846,846,846,846,846,843,843,843,843,843,843,843,843,840,840,840,840,840,840,840,840,837,837,837,837,837,837,837,837,837,837,837,837,837,837,837,837,837,837,837,837,837,837,837,837,837,837,837,834,834,834,834,834,834,834,834,834,834,834,834,834,834,834,834,834,834,834,834,834,834,834,834,834,831,831,831,831,831,828,828,828,828,828,828,828,828,828,828,828,828,828,828,828,828,825,825,825,825,825,825,825,825,828,828,828,828,828,828,828,828,828,828,828,828,828,828,831,831,831,834,834,834,837,837,837,837,837,837,837,840,840,840,843,843,846,846,849,849,849,852,852,855,858,858,861,864,867,867,870,873,873,876,876,879,879,879,879,879,876,876,876,876,876,879,882,882,885,888,891,894,897,900,903,906,912,915,921,930,942,954,966,978,993,1014,1038,1059,1071,1086,1104,1119,1134,1149,1164,1179,1191,1200,1209,1218,1227,1233,1239,1248,1254,1257,1260,1260,1263,1263,1266,1269,1275,1278,1284,1287,1287,1290,1290,1293,1293,1293,1293,1290,1287,1287,1287,1287,1287,1287,1293,1296,1299,1302,1305,1311,1314,1317,1320,1323,1329,1332,1335,1338,1338,1341,1341,1341,1344,1344,1347,1347,1350,1350,1350,1353,1356,1356,1356,1359,1359,1359,1359,1359,1362,1365,1368,1368,1371,1371,1371,1374,1374,1374,1374,1380,1383,1386,1386
1329,1335,1341,1344,1347,1350,1356,1359,1362,1368,1371,1374,1380,1383,1386,1389,1395,1398,1401,1404,1410,1413,1416,1419,1422,1422,1425,1428,1431,1431,1434,1434,1437,1440,1440,1443,1446,1446,1446,1449,1449,1452,1455,1455,1458,1458,1458,1458,1461,1461,1461,1461,1461,1464,1464,1464,1464,1467,1467,1467,1467,1467,1467,1467,1464,1464,1461,1461,1461,1458,1458,1455,1455,1455,1455,1455,1455,1458,1458,1455,1455,1455,1455,1458,1455,1452,1449,1446,1446,1446,1446,1446,1446,1446,1446,1446,1443,1443,1443,1440,1440,1437,1434,1434,1431,1431,1428,1428,1425,1425,1422,1422,1419,1419,1416,1416,1413,1413,1413,1410,1407,1404,1401,1398,1398,1398,1398,1398,1395,1395,1398,1401,1404,1407,1410,1410,1410,1410,1413,1413,1413,1410,1407,1404,1401,1395,1389,1377,1368,1356,1344,1335,1326,1320,1311,1305,1296,1284,1272,1257,1251,1242,1221,1203,1182,1161,1140,1119,1095,1068,1041,1011,990,975,960,945,936,936,939,942,933,921,921,921,918,918,918,915,915,915,915,915,912,912,912,912,912,909,909,909,909,906,903,900,900,897,894,891,891,888,885,882,882,879,876,876,876,879,882,885,885,885,885,885,885,885,885,885,885,885,885,882,882,879,876,876,873,873,873,873,873,876,876,879,879,879,879,879,879,879,879,876,876,876,873,873,873,870,870,870,867,867,867,864,861,861,861,861,858,858,858,858,858,858,858,858,858,858,858,858,858,858,861,861,861,861,861,864,867,870,867,861,861,864,867,867,867,864,864,858,855,855,855,852,852,849,849,849,849,846,846,846,846,846,843,843,843,843,843,846,846,846,846,843,843,843,843,846,846,846,846,846,843,843,843,843,843,843,843,843,843,840,840,840,840,840,840,840,837,837,837,837,837,837,837,837,837,837,837,837,837,837,837,837,837,837,837,837,837,837,837,837,837,837,837,837,834,834,834,834,834,834,834,834,834,834,834,834,834,834,834,834,834,834,834,834,834,834,831,831,831,831,831,831,831,828,828,828,828,828,828,828,828,828,828,828,828,828,828,828,828,828,825,825,825,825,825,825,825,828,828,828,828,828,828,828,828,828,831,831,831,831,831,831,831,834,834,837,837,837,840,840,840,840,840,840,843,843,846,846,846,849,849,852,852,855,855,855,858,861,861,864,867,870,870,873,876,879,879,882,882,885,885,885,885,885,885,885,885,885,888,894,894,894,897,897,900,906,909,915,918,924,927,933,939,942,954,969,984,996,1008,1026,1050,1071,1095,1113,1128,1143,1158,1173,1185,1194,1203,1212,1224,1233,1242,1248,1254,1263,1263,1263,1266,1266,1269,1269,1272,1275,1278,1281,1287,1290,1293,1293,1296,1296,1299,1299,1299,1296,1293,1293,1293,1293,1293,1296,1299,1302,1305,1308,1314,1317,1320,1323,1326,1332,1335,1338,1341,1344,1347,1347,1350,1350,1350,1353,1353,1353,1356,1356,1359,1359,1362,1365,1365,1368,1368,1368,1368,1368,1368,1371,1374,1377,1377,1380,1380,1380,1383,1383,1383,1386,1386,1389,1392
1323,1329,1335,1341,1344,1347,1353,1356,1359,1365,1368,1371,1377,1380,1383,1386,1392,1395,1398,1401,1407,1410,1413,1416,1419,1419,1422,1425,1425,1428,1428,1431,1434,1434,1437,1437,1440,1443,1443,1446,1446,1449,1449,1452,1452,1452,1452,1455,1455,1455,1455,1458,1458,1458,1458,1461,1461,1461,1461,1464,1464,1464,1464,1461,1461,1458,1458,1458,1455,1455,1452,1452,1449,1449,1449,1449,1449,1449,1449,1449,1449,1449,1452,1452,1449,1446,1446,1443,1443,1443,1443,1443,1443,1443,1443,1440,1440,1440,1437,1437,1434,1434,1431,1428,1428,1425,1425,1422,1422,1419,1419,1416,1416,1413,1413,1410,1410,1407,1407,1407,1404,1401,1398,1395,1392,1392,1392,1392,1389,1389,1389,1392,1395,1398,1401,1401,1404,1404,1404,1404,1398,1395,1392,1386,1380,1371,1359,1347,1338,1329,1323,1317,1308,1302,1293,1287,1275,1260,1245,1233,1224,1212,1200,1179,1155,1128,1101,1077,1044,1014,993,978,963,948,936,933,927,924,924,918,918,915,915,915,912,912,912,912,909,909,909,909,906,906,906,906,906,903,903,903,903,900,900,897,894,891,891,888,885,882,882,879,876,876,876,876,876,876,876,879,882,882,882,882,882,882,882,882,882,882,882,879,879,876,873,873,873,873,873,873,873,873,876,876,879,879,879,879,879,876,876,876,873,873,870,870,870,867,867,867,864,864,861,861,861,861,858,858,858,858,858,858,858,858,855,855,855,855,858,858,858,858,858,858,858,861,861,861,864,864,858,855,858,864,864,864,861,861,861,855,855,852,852,852,849,849,849,849,846,846,846,846,846,843,843,843,843,843,846,846,846,846,846,846,846,846,843,843,843,846,846,846,843,843,843,843,843,843,843,843,840,840,840,840,840,840,840,840,837,837,837,837,837,837,837,837,837,837,837,837,837,837,837,837,837,837,837,837,837,837,837,837,837,837,837,837,834,837,837,837,837,837,834,834,834,834,834,834,834,834,834,834,834,834,834,831,831,831,831,831,831,831,831,831,828,828,828,828,828,828,828,828,828,828,828,828,828,828,828,828,828,828,825,825,825,825,825,828,828,828,828,828,828,831,831,831,831,831,831,831,831,831,834,834,834,837,837,837,840,840,840,843,843,843,843,846,846,849,849,852,852,852,855,855,858,858,861,861,861,864,867,870,873,873,876,879,882,882,885,888,888,891,894,894,894,891,891,891,894,900,903,909,912,912,915,918,921,924,930,933,936,939,945,951,957,960,966,981,996,1011,1026,1041,1062,1083,1107,1128,1152,1167,1179,1188,1197,1206,1218,1227,1236,1245,1254,1263,1266,1269,1269,1272,1272,1272,1275,1275,1278,1278,1284,1287,1290,1296,1296,1299,1299,1302,1302,1305,1302,1302,1299,1299,1299,1299,1302,1302,1305,1308,1311,1314,1320,1323,1326,1329,1335,1338,1341,1344,1347,1350,1353,1356,1356,1356,1359,1359,1359,1362,1362,1362,1365,1365,1368,1371,1371,1374,1377,1377,1377,1377,1380,1380,1383,1383,1386,1386,1386,1389,1389,1389,1389,1389,1392,1395,1398
1320,1326,1332,1335,1341,1344,1347,1353,1356,1362,1365,1368,1374,1377,1380,1383,1389,1392,1395,1398,1404,1407,1410,1413,1416,1416,1419,1419,1422,1425,1425,1428,1428,1431,1431,1434,1434,1437,1440,1440,1443,1443,1446,1446,1446,1449,1449,1449,1449,1452,1452,1452,1452,1452,1455,1455,1455,1455,1458,1458,1458,1458,1458,1458,1455,1455,1455,1452,1452,1449,1449,1446,1446,1446,1446,1443,1443,1443,1443,1443,1446,1446,1446,1449,1446,1443,1440,1440,1440,1440,1440,1440,1440,1437,1437,1437,1434,1434,1434,1434,1431,1428,1428,1425,1422,1422,1419,1419,1416,1416,1413,1413,1410,1410,1407,1404,1404,1404,1401,1401,1398,1398,1395,1392,1389,1386,1386,1386,1383,1383,1383,1383,1386,1389,1392,1395,1398,1395,1389,1386,1383,1380,1374,1362,1353,1341,1332,1323,1317,1311,1305,1299,1290,1284,1275,1263,1248,1233,1221,1206,1194,1179,1155,1131,1107,1080,1050,1020,993,978,963,948,936,933,930,924,921,915,912,912,912,909,909,909,906,906,906,906,903,903,903,903,900,900,900,900,897,897,897,897,897,894,894,891,891,888,885,882,879,879,876,876,876,876,876,876,876,876,876,876,876,876,879,879,876,876,876,876,876,876,876,876,873,873,873,873,873,873,873,873,873,873,873,873,876,876,876,876,876,873,873,873,870,870,870,867,867,867,864,864,861,861,861,861,858,858,858,858,858,858,858,855,855,855,855,855,855,855,855,855,855,855,855,858,858,858,858,858,861,858,855,855,858,861,861,861,858,858,858,855,852,852,852,849,849,849,849,849,846,846,846,846,843,843,843,843,843,846,846,846,846,846,846,846,846,846,846,846,843,843,843,843,843,843,843,843,843,843,843,840,840,840,840,840,840,840,840,840,840,837,837,837,837,837,837,837,837,837,837,837,837,837,837,837,837,837,837,837,837,837,837,837,837,837,837,837,837,837,837,837,837,834,834,834,834,834,834,834,834,834,834,834,834,831,831,831,831,831,831,831,831,831,831,828,828,828,828,828,828,828,828,828,828,828,828,828,828,828,828,828,828,825,825,825,825,828,828,828,828,828,828,831,831,831,831,831,831,831,831,834,834,834,837,837,837,840,840,840,843,843,843,846,846,846,849,849,852,852,855,855,855,858,858,861,861,864,864,867,867,870,870,873,876,879,882,885,885,888,891,891,894,897,900,900,900,900,900,903,909,915,918,924,930,930,933,939,942,945,948,951,957,969,978,978,978,981,984,993,1008,1026,1044,1062,1077,1095,1119,1140,1164,1182,1194,1203,1212,1224,1233,1242,1251,1260,1269,1272,1275,1275,1278,1278,1278,1278,1281,1281,1284,1284,1287,1293,1296,1299,1305,1305,1305,1305,1308,1308,1308,1308,1305,1305,1305,1308,1311,1311,1314,1314,1317,1323,1326,1329,1332,1338,1341,1344,1350,1350,1353,1356,1359,1362,1365,1365,1365,1368,1368,1368,1371,1371,1371,1374,1374,1377,1377,1380,1383,1383,1386,1386,1389,1389,1389,1392,1392,1395,1395,1395,1395,1395,1398,1398,1398,1401,1404
1317,1323,1329,1332,1335,1341,1344,1350,1353,1359,1362,1365,1371,1374,1377,1380,1386,1389,1392,1395,1401,1404,1407,1410,1410,1413,1416,1416,1419,1419,1422,1422,1425,1425,1428,1431,1431,1434,1434,1437,1437,1440,1440,1443,1443,1443,1443,1443,1446,1446,1446,1446,1449,1449,1449,1449,1452,1452,1452,1452,1455,1455,1455,1452,1452,1452,1449,1449,1446,1446,1446,1443,1443,1443,1443,1440,1440,1440,1440,1440,1440,1440,1443,1443,1440,1437,1437,1437,1437,1437,1437,1437,1434,1434,1434,1431,1431,1431,1428,1428,1428,1425,1425,1422,1419,1416,1416,1413,1413,1410,1407,1407,1404,1404,1401,1401,1398,1398,1395,1395,1392,1392,1389,1386,1386,1383,1380,1380,1380,1377,1377,1374,1377,1380,1386,1383,1380,1374,1371,1368,1362,1356,1344,1335,1326,1317,1311,1305,1299,1293,1287,1281,1272,1266,1251,1236,1221,1209,1194,1173,1146,1119,1092,1065,1038,1011,993,981,966,951,936,930,927,924,921,915,912,912,909,909,906,906,903,903,903,900,900,900,897,897,897,897,894,894,894,894,891,891,891,891,891,888,888,888,885,882,879,879,876,876,876,876,876,876,876,876,876,876,876,876,876,876,876,876,876,876,876,876,873,873,873,873,873,873,873,873,873,873,873,873,873,873,873,873,873,876,876,876,873,873,870,870,870,867,867,867,864,864,861,861,861,861,861,858,858,858,858,858,858,855,855,855,855,855,855,855,855,855,852,852,855,855,855,855,855,858,858,858,858,858,855,855,858,858,858,858,855,855,852,852,852,852,849,849,849,849,849,846,846,846,846,843,843,843,843,843,846,846,846,846,846,846,846,846,846,846,846,846,846,846,843,843,843,843,843,843,843,843,843,843,840,840,840,840,840,840,840,840,840,840,837,837,837,837,837,837,837,837,837,837,837,837,837,837,837,837,837,837,837,837,837,837,837,837,837,837,837,837,837,837,834,834,834,834,834,834,834,834,834,834,834,834,834,831,831,831,831,831,831,831,831,831,828,828,828,828,828,828,828,828,828,828,828,828,828,828,828,828,828,828,828,825,825,828,828,828,828,828,828,831,831,831,831,831,831,831,834,834,834,834,837,837,840,840,840,843,843,846,846,849,849,849,852,852,852,855,855,858,858,861,861,861,864,864,867,867,870,870,873,873,876,879,882,885,888,888,891,894,897,897,900,903,906,906,906,909,912,918,924,930,933,939,945,951,954,957,960,963,969,972,984,999,1008,1014,1014,1017,1017,1017,1032,1050,1068,1086,1104,1116,1131,1149,1170,1194,1212,1221,1230,1239,1248,1260,1269,1272,1278,1281,1284,1284,1287,1287,1287,1290,1290,1290,1290,1293,1293,1296,1302,1305,1308,1311,1311,1311,1311,1314,1314,1314,1314,1311,1311,1314,1317,1320,1320,1323,1326,1329,1332,1335,1341,1344,1347,1353,1356,1359,1359,1362,1365,1368,1371,1371,1374,1374,1374,1377,1377,1377,1380,1380,1383,1383,1383,1386,1389,1389,1392,1395,1395,1398,1398,1401,1401,1401,1401,1401,1404,1404,1404,1404,1404,1407,1410
1314,1320,1323,1329,1332,1335,1341,1344,1350,1353,1359,1362,1365,1371,1374,1377,1383,1386,1389,1395,1398,1401,1404,1407,1407,1410,1413,1413,1416,1416,1419,1419,1422,1425,1425,1428,1428,1431,1431,1434,1434,1437,1437,1437,1437,1437,1440,1440,1440,1440,1443,1443,1443,1443,1446,1446,1446,1446,1446,1449,1449,1449,1449,1449,1449,1446,1446,1443,1443,1443,1440,1440,1440,1440,1440,1440,1437,1437,1437,1437,1437,1437,1437,1437,1437,1434,1434,1434,1434,1434,1431,1431,1431,1428,1428,1428,1425,1425,1425,1425,1422,1422,1419,1419,1416,1413,1413,1410,1407,1404,1404,1401,1401,1398,1398,1395,1395,1392,1389,1389,1386,1386,1383,1380,1380,1377,1377,1374,1374,1371,1371,1368,1371,1368,1365,1359,1356,1353,1347,1344,1338,1329,1317,1311,1305,1299,1293,1287,1281,1275,1269,1263,1254,1239,1224,1212,1188,1158,1131,1104,1077,1050,1020,996,990,981,969,954,939,930,927,924,921,918,915,912,909,909,906,906,903,900,900,900,897,897,894,894,894,891,891,891,888,888,888,888,885,885,885,885,885,882,882,882,879,879,876,876,876,876,876,876,876,876,876,876,876,876,876,876,876,876,876,876,876,876,876,876,873,873,873,873,873,873,873,873,873,873,873,873,873,873,873,873,873,873,873,873,870,870,870,867,867,867,864,864,864,861,861,858,858,858,858,858,858,858,855,855,855,855,855,855,855,855,855,852,852,852,852,852,852,852,855,855,855,855,855,855,855,855,855,852,855,855,855,855,852,852,852,852,852,849,849,849,849,849,846,846,846,846,843,843,843,843,843,846,846,846,846,846,846,846,846,846,846,846,846,846,846,846,843,843,843,843,843,843,843,843,843,843,843,840,840,840,840,840,840,840,840,840,840,840,837,837,837,837,837,837,840,837,837,837,837,837,837,837,837,837,837,837,837,837,837,837,837,837,837,837,834,834,834,834,834,834,834,834,834,834,834,834,834,834,831,831,831,831,831,831,831,831,831,828,828,828,828,828,828,828,828,828,828,828,828,828,828,828,828,828,828,828,828,828,828,828,828,828,828,831,831,831,831,831,831,831,834,834,837,837,840,840,843,843,846,846,846,849,849,852,852,855,855,855,855,858,858,861,861,864,864,864,867,867,867,870,870,873,873,873,876,879,882,885,888,888,891,894,897,900,906,909,909,912,912,915,918,924,930,936,942,948,954,960,966,969,972,978,981,984,987,1002,1014,1026,1038,1047,1050,1050,1053,1053,1059,1074,1095,1113,1128,1143,1155,1170,1182,1200,1221,1239,1248,1257,1266,1272,1278,1281,1284,1287,1293,1296,1296,1296,1296,1299,1299,1299,1299,1302,1302,1305,1305,1311,1314,1317,1320,1320,1320,1320,1320,1320,1320,1320,1317,1317,1320,1323,1326,1329,1332,1335,1338,1344,1347,1350,1356,1359,1362,1365,1368,1368,1371,1374,1377,1380,1380,1383,1383,1383,1386,1389,1389,1392,1389,1389,1392,1392,1395,1395,1398,1401,1401,1404,1407,1407,1407,1407,1410,1410,1410,1410,1410,1410,1410,1413,1413
1308,1317,1320,1326,1329,1332,1338,1341,1347,1350,1356,1359,1362,1368,1371,1374,1380,1383,1386,1392,1395,1398,1401,1404,1407,1407,1410,1410,1413,1416,1416,1419,1419,1422,1422,1425,1428,1428,1431,1431,1431,1431,1434,1434,1437,1437,1437,1437,1437,1437,1437,1437,1437,1440,1440,1440,1440,1443,1443,1443,1443,1446,1446,1446,1443,1443,1440,1440,1440,1440,1437,1437,1437,1437,1437,1437,1434,1434,1434,1434,1434,1434,1434,1434,1431,1431,1431,1431,1428,1428,1428,1425,1425,1425,1425,1422,1422,1422,1419,1419,1419,1419,1416,1413,1413,1410,1407,1407,1404,1401,1398,1398,1395,1395,1392,1392,1389,1386,1386,1383,1380,1380,1377,1374,1374,1371,1368,1368,1365,1365,1362,1362,1356,1350,1344,1335,1332,1329,1323,1320,1311,1302,1296,1293,1287,1281,1275,1269,1263,1257,1251,1242,1227,1200,1170,1143,1113,1086,1059,1032,1005,993,987,978,969,960,942,930,927,924,921,918,915,912,909,909,906,906,903,903,900,897,897,894,894,891,891,891,888,888,888,885,885,882,882,882,879,879,879,879,879,876,876,876,876,873,876,876,876,876,876,876,876,876,876,876,876,876,876,876,876,876,876,876,876,876,876,876,873,873,873,873,873,873,873,873,873,873,873,873,873,873,873,873,873,873,870,870,867,867,867,867,864,864,864,861,861,858,858,858,858,858,858,855,855,855,855,855,855,855,855,855,852,852,852,852,852,852,852,852,852,852,855,855,855,855,855,855,852,852,852,852,855,852,852,852,849,849,849,849,849,849,849,849,846,846,846,846,846,843,843,843,843,843,846,846,846,846,846,846,846,846,846,846,846,846,846,846,846,843,843,843,843,843,843,843,843,843,843,843,843,843,840,840,840,840,840,840,840,840,840,840,840,840,840,840,837,840,840,840,840,840,837,837,837,837,837,837,837,837,837,837,837,837,837,837,837,834,834,834,834,834,834,834,834,834,834,834,834,834,834,834,831,831,831,831,831,831,831,831,828,828,828,828,828,828,828,828,828,828,828,828,828,828,828,828,828,828,828,828,828,828,828,828,828,831,831,831,831,831,831,831,834,834,837,837,843,843,846,846,849,849,852,852,852,855,855,858,858,861,858,861,861,864,864,864,867,867,870,870,873,873,873,876,876,876,876,879,882,885,885,888,891,894,897,900,906,912,918,921,921,924,924,930,936,945,951,954,960,966,972,978,984,990,993,996,999,1005,1017,1029,1041,1059,1068,1077,1086,1086,1086,1089,1092,1101,1119,1137,1155,1167,1182,1194,1206,1221,1233,1251,1263,1272,1278,1281,1284,1287,1293,1296,1299,1302,1305,1305,1305,1308,1308,1308,1311,1311,1314,1314,1317,1317,1320,1323,1326,1326,1326,1326,1326,1326,1326,1326,1326,1326,1329,1329,1332,1335,1338,1341,1347,1350,1353,1359,1362,1365,1368,1371,1374,1377,1377,1380,1383,1386,1389,1392,1395,1395,1398,1398,1401,1398,1398,1398,1398,1398,1401,1404,1404,1407,1407,1410,1413,1413,1413,1416,1416,1416,1416,1416,1416,1419,1419,1419,1419
1305,1311,1317,1323,1326,1329,1335,1338,1344,1347,1353,1356,1359,1365,1368,1371,1377,1380,1383,1389,1392,1395,1398,1401,1404,1407,1407,1410,1410,1413,1413,1416,1419,1419,1422,1422,1425,1425,1428,1428,1428,1428,1431,1431,1431,1434,1434,1434,1434,1434,1434,1434,1434,1437,1437,1437,1437,1437,1437,1440,1440,1440,1440,1440,1440,1437,1437,1437,1437,1437,1434,1434,1434,1434,1434,1434,1431,1431,1431,1431,1431,1431,1431,1428,1428,1428,1428,1425,1425,1425,1422,1422,1422,1419,1419,1419,1416,1416,1416,1416,1413,1413,1413,1410,1410,1407,1404,1401,1401,1398,1395,1395,1392,1389,1386,1383,1383,1380,1377,1377,1374,1371,1371,1368,1365,1365,1362,1359,1359,1356,1356,1356,1347,1338,1329,1323,1317,1311,1302,1296,1287,1281,1275,1269,1263,1257,1251,1245,1236,1230,1212,1185,1155,1128,1098,1071,1044,1014,999,990,981,975,966,957,948,933,930,924,921,918,915,912,912,909,906,906,903,903,900,900,897,894,894,891,891,888,888,885,885,885,882,882,882,879,879,876,876,876,873,873,873,873,873,873,873,873,876,876,876,876,876,876,876,876,876,876,876,876,876,876,876,876,876,876,876,876,876,873,873,873,873,873,873,873,873,873,873,873,873,873,873,873,870,870,870,867,867,864,864,864,864,864,864,861,861,858,858,858,858,858,858,855,855,855,855,855,855,855,855,852,852,852,852,852,852,852,852,852,852,852,852,852,852,852,852,852,852,852,852,852,852,852,852,849,849,849,849,849,849,846,846,846,846,846,846,846,843,843,843,843,843,843,843,843,843,846,846,846,846,846,846,846,846,846,846,846,846,846,846,843,843,843,846,843,843,843,843,843,843,843,843,843,843,840,840,840,840,840,840,840,840,840,840,840,840,840,840,840,840,840,840,840,840,840,840,837,837,837,837,837,837,837,837,837,837,837,837,834,834,834,834,834,834,834,834,834,834,834,834,834,834,831,831,831,831,831,831,831,831,828,828,828,828,828,828,828,828,828,828,828,828,828,828,828,828,828,828,828,828,828,828,828,828,831,831,831,831,831,831,831,834,834,834,837,840,843,849,852,852,852,855,855,858,858,858,861,861,864,864,864,864,864,867,867,870,870,873,873,873,876,876,879,879,879,879,882,882,882,885,888,891,894,900,903,906,912,918,927,933,933,936,936,942,951,957,963,969,975,981,987,993,999,1002,1008,1011,1014,1020,1032,1044,1059,1071,1083,1098,1107,1116,1122,1122,1125,1128,1134,1143,1161,1179,1194,1206,1218,1233,1245,1260,1272,1278,1281,1284,1287,1293,1296,1299,1302,1308,1311,1314,1314,1317,1317,1317,1317,1320,1320,1323,1323,1326,1329,1329,1332,1332,1335,1335,1335,1335,1335,1335,1335,1335,1335,1338,1338,1341,1344,1344,1344,1350,1353,1359,1362,1368,1371,1374,1377,1380,1383,1383,1386,1389,1392,1398,1401,1404,1404,1407,1407,1407,1407,1407,1404,1404,1404,1407,1410,1410,1413,1416,1416,1416,1419,1419,1422,1422,1422,1422,1422,1422,1425,1425,1425,1428
1299,1305,1311,1317,1323,1329,1332,1335,1341,1344,1347,1353,1356,1362,1365,1368,1374,1377,1380,1386,1389,1392,1395,1398,1401,1404,1404,1407,1410,1410,1413,1413,1416,1416,1419,1422,1422,1422,1422,1422,1425,1425,1425,1428,1428,1431,1431,1431,1434,1434,1434,1434,1434,1434,1434,1434,1434,1434,1434,1434,1434,1434,1437,1437,1437,1434,1434,1434,1434,1434,1434,1431,1431,1431,1431,1431,1428,1428,1428,1428,1428,1428,1425,1425,1425,1425,1422,1422,1422,1419,1419,1419,1416,1416,1413,1413,1413,1410,1410,1410,1407,1407,1407,1407,1404,1401,1401,1398,1398,1395,1392,1389,1389,1386,1383,1380,1380,1377,1374,1371,1368,1365,1362,1362,1359,1356,1356,1353,1350,1350,1347,1344,1335,1326,1317,1308,1302,1296,1281,1266,1251,1236,1230,1221,1215,1209,1203,1191,1173,1155,1134,1110,1083,1053,1026,1002,993,987,978,969,963,954,948,936,930,927,924,921,918,915,912,909,909,906,903,903,900,900,897,894,894,891,891,888,885,885,885,882,882,882,879,879,876,876,873,873,870,873,873,873,873,873,873,873,873,876,876,876,876,876,876,876,876,876,876,876,876,876,876,876,876,876,876,876,876,876,876,873,873,873,873,873,873,873,873,873,873,873,873,870,870,870,867,867,864,864,864,864,864,861,861,861,861,858,858,858,855,855,855,855,855,855,855,855,855,855,855,852,852,852,852,852,852,852,852,852,852,852,852,852,852,852,852,852,852,852,849,849,849,849,849,849,849,849,849,849,846,846,846,846,846,846,846,846,846,846,843,843,843,843,843,843,843,843,843,843,843,846,846,846,846,846,846,846,846,846,846,846,843,843,843,843,846,846,843,843,843,843,843,843,843,843,843,843,840,840,840,840,840,840,840,840,840,840,840,840,840,840,840,840,840,840,840,840,840,840,840,840,840,837,837,837,837,837,837,837,837,834,834,834,834,834,834,834,834,834,834,834,834,834,834,831,831,831,831,831,831,831,831,828,828,828,828,828,828,828,828,828,828,828,828,828,828,828,828,828,828,828,828,828,828,831,831,831,831,831,831,834,834,834,834,837,840,843,846,849,855,858,858,858,861,861,864,864,864,867,867,870,870,870,870,870,870,873,873,876,876,879,879,882,882,882,882,885,885,885,888,891,897,900,906,909,912,918,924,930,933,939,945,945,948,954,963,969,975,981,987,993,999,1005,1011,1017,1023,1026,1032,1035,1047,1062,1074,1086,1101,1113,1125,1137,1146,1152,1158,1161,1164,1167,1170,1185,1203,1218,1230,1245,1257,1269,1281,1284,1287,1290,1293,1296,1299,1302,1308,1311,1314,1317,1323,1323,1326,1326,1326,1329,1329,1332,1332,1335,1335,1338,1338,1341,1341,1341,1344,1344,1344,1344,1344,1344,1344,1347,1347,1347,1350,1350,1347,1344,1347,1350,1356,1362,1371,1377,1380,1383,1386,1389,1389,1392,1398,1401,1404,1410,1413,1413,1413,1413,1413,1413,1413,1413,1413,1413,1413,1416,1416,1419,1419,1422,1422,1425,1425,1428,1428,1428,1428,1428,1431,1431,1431,1431,1434
1293,1299,1305,1311,1317,1323,1329,1332,1338,1341,1344,1350,1353,1356,1362,1365,1371,1374,1377,1380,1386,1389,1392,1395,1398,1401,1404,1404,1407,1407,1410,1413,1413,1416,1416,1419,1419,1419,1419,1419,1419,1422,1422,1422,1425,1425,1428,1428,1431,1431,1431,1431,1431,1431,1431,1431,1431,1431,1431,1431,1431,1431,1431,1431,1431,1431,1431,1431,1431,1428,1428,1428,1428,1428,1428,1425,1425,1425,1425,1425,1425,1422,1422,1422,1422,1422,1419,1419,1419,1416,1416,1416,1413,1410,1410,1407,1407,1407,1404,1404,1404,1401,1401,1401,1401,1398,1395,1395,1392,1392,1389,1386,1383,1383,1380,1377,1377,1374,1371,1368,1365,1362,1359,1356,1356,1353,1350,1347,1344,1344,1341,1332,1323,1314,1305,1296,1284,1269,1251,1236,1221,1206,1188,1176,1170,1152,1134,1116,1095,1077,1059,1038,1011,999,990,981,975,966,960,951,942,936,930,927,924,924,921,918,915,912,909,906,903,903,900,900,897,894,894,891,888,888,885,885,885,885,882,882,879,879,876,876,873,873,873,870,873,873,873,873,873,873,873,876,876,876,876,876,876,876,876,876,876,876,876,876,876,876,876,876,876,876,876,876,876,876,873,873,873,873,873,870,873,873,873,873,870,870,867,867,867,864,864,864,864,864,864,861,864,864,861,858,858,858,855,855,855,855,855,855,855,855,855,855,852,852,852,852,852,852,852,852,852,852,852,852,852,852,852,852,852,852,852,852,849,849,849,849,849,849,849,849,849,849,849,849,849,846,846,846,846,846,846,846,846,846,846,843,843,843,843,843,843,843,843,843,843,843,846,846,846,846,846,846,846,846,846,843,843,843,843,843,846,846,846,843,843,843,843,843,843,843,843,843,843,843,840,840,840,840,840,840,840,840,840,840,840,840,840,840,840,840,840,840,840,840,840,840,840,840,837,837,837,837,837,837,837,834,834,834,834,834,834,834,834,834,834,834,834,834,831,831,831,831,831,831,831,831,828,828,828,828,828,828,828,828,828,828,828,828,828,828,828,828,828,828,828,828,828,831,831,831,831,831,831,834,834,834,834,837,840,843,843,846,849,855,861,864,864,867,867,867,870,870,870,873,873,876,876,876,876,876,876,876,879,879,882,882,885,885,885,888,888,891,891,897,900,906,909,915,918,921,930,936,942,945,948,954,957,960,966,975,981,987,993,999,1005,1011,1017,1026,1032,1038,1041,1047,1050,1065,1077,1089,1104,1116,1128,1140,1152,1164,1173,1182,1191,1194,1200,1203,1206,1209,1227,1242,1257,1269,1281,1290,1293,1296,1296,1299,1302,1305,1308,1311,1314,1317,1323,1326,1329,1332,1335,1335,1335,1338,1338,1341,1341,1344,1344,1347,1347,1347,1347,1350,1353,1353,1353,1353,1353,1356,1356,1356,1356,1359,1359,1356,1353,1350,1347,1350,1356,1365,1374,1380,1386,1389,1392,1395,1398,1401,1404,1407,1413,1416,1419,1422,1422,1422,1422,1422,1422,1419,1419,1419,1419,1422,1422,1425,1425,1428,1428,1431,1431,1434,1434,1434,1434,1437,1437,1437,1437,1440,1443
1290,1293,1299,1305,1311,1317,1323,1329,1335,1338,1341,1347,1350,1356,1359,1362,1368,1371,1374,1377,1383,1386,1389,1392,1395,1398,1401,1404,1404,1407,1407,1410,1410,1413,1413,1416,1416,1416,1416,1416,1416,1416,1419,1419,1422,1422,1425,1425,1425,1428,1428,1428,1428,1428,1428,1428,1428,1428,1428,1428,1428,1428,1428,1428,1428,1428,1428,1428,1425,1425,1425,1425,1425,1425,1422,1422,1422,1422,1422,1419,1419,1419,1419,1419,1419,1419,1416,1416,1416,1413,1413,1410,1407,1407,1404,1401,1401,1401,1398,1398,1398,1398,1395,1395,1395,1392,1392,1389,1389,1386,1386,1383,1380,1380,1377,1374,1374,1371,1368,1365,1362,1359,1356,1353,1353,1350,1347,1344,1341,1338,1332,1323,1314,1305,1290,1269,1254,1239,1221,1206,1191,1176,1134,1104,1071,1047,1038,1029,1020,1014,1005,999,993,984,978,969,963,954,948,939,933,930,924,921,918,915,915,912,909,906,903,900,900,897,897,894,891,891,888,888,885,885,885,882,882,882,882,879,879,876,876,876,873,873,870,873,873,873,873,873,873,876,876,876,876,876,876,876,876,876,876,876,876,876,876,876,876,876,876,876,876,876,876,876,876,873,873,873,873,873,870,870,870,870,870,867,867,867,864,864,864,864,864,864,861,861,861,861,861,864,861,861,858,858,855,855,855,855,855,855,855,855,852,852,852,852,852,852,852,852,852,852,852,852,852,852,852,852,852,852,852,852,852,849,849,849,849,849,849,849,849,849,849,849,849,849,849,849,846,846,846,846,846,846,846,846,846,846,843,843,843,843,843,843,843,843,843,843,843,846,846,846,846,846,846,846,846,843,843,843,843,843,846,846,846,846,843,843,843,843,843,843,843,843,843,843,843,840,840,840,840,840,840,840,840,840,840,840,840,840,840,840,840,840,840,840,840,840,840,840,837,837,837,837,837,837,837,834,834,834,834,834,834,834,834,834,834,834,834,831,831,831,831,831,831,831,831,831,828,828,828,828,828,828,828,828,828,828,828,828,828,828,828,828,828,828,828,831,831,831,831,831,831,831,834,834,834,837,837,840,843,846,849,852,855,861,867,870,870,873,873,873,876,876,876,879,879,882,882,882,882,882,882,882,885,885,888,888,891,891,894,894,894,897,903,909,915,918,924,927,933,939,948,954,957,960,963,966,972,978,987,993,999,1005,1011,1017,1023,1029,1038,1044,1050,1059,1062,1068,1080,1092,1107,1119,1131,1143,1155,1170,1182,1194,1203,1212,1215,1221,1230,1236,1242,1245,1251,1269,1281,1293,1296,1299,1302,1305,1305,1308,1311,1314,1317,1320,1323,1326,1329,1332,1338,1341,1344,1344,1344,1347,1350,1350,1350,1350,1353,1353,1353,1353,1353,1356,1362,1362,1362,1365,1365,1365,1365,1365,1368,1368,1371,1371,1368,1365,1365,1365,1368,1374,1380,1386,1392,1395,1398,1401,1404,1407,1410,1416,1419,1422,1425,1428,1428,1428,1428,1428,1428,1428,1428,1425,1425,1428,1428,1431,1431,1434,1434,1437,1437,1440,1440,1440,1440,1443,1443,1443,1446,1446,1449
1284,1290,1296,1302,1308,1314,1320,1326,1332,1335,1341,1344,1347,1353,1356,1359,1365,1368,1371,1374,1380,1383,1386,1389,1392,1395,1398,1401,1401,1404,1407,1407,1410,1410,1410,1410,1410,1410,1410,1410,1413,1413,1413,1416,1416,1419,1419,1422,1422,1422,1425,1425,1425,1425,1425,1425,1425,1425,1425,1425,1425,1425,1425,1425,1425,1425,1425,1422,1422,1422,1422,1422,1419,1419,1419,1419,1419,1419,1416,1416,1416,1416,1416,1416,1416,1416,1413,1413,1413,1410,1407,1407,1404,1401,1398,1398,1395,1395,1392,1392,1392,1392,1389,1389,1389,1389,1389,1386,1386,1383,1380,1380,1377,1374,1374,1371,1371,1368,1365,1362,1359,1356,1353,1350,1350,1347,1344,1341,1335,1329,1320,1311,1302,1281,1257,1239,1224,1206,1185,1137,1098,1065,1053,1041,1032,1029,1020,1014,1005,996,990,987,981,975,966,960,951,945,936,933,927,924,918,915,912,909,906,903,903,900,897,897,894,894,891,891,888,888,885,885,885,882,882,882,882,879,879,879,876,876,876,873,873,870,873,873,873,873,873,873,876,876,876,876,876,876,876,876,876,876,876,876,876,876,876,876,876,876,876,876,876,873,873,870,870,870,870,870,870,870,870,870,870,867,867,867,864,864,864,864,864,861,861,861,861,861,861,861,861,861,864,861,861,858,858,858,858,855,855,855,855,855,855,852,852,852,852,852,852,852,852,852,852,852,852,852,852,852,852,852,852,852,852,852,849,849,849,849,849,849,849,849,849,849,849,849,849,849,849,849,846,846,846,846,846,846,846,846,846,843,843,843,843,843,843,843,843,843,843,843,846,846,846,846,846,846,843,843,843,843,843,843,846,846,846,846,846,846,843,843,843,843,843,843,843,843,843,843,843,840,840,840,840,840,840,840,840,840,840,840,840,840,840,840,840,840,840,840,840,840,840,837,837,837,837,837,837,834,834,834,834,834,834,834,834,834,834,834,834,831,831,831,831,831,831,831,831,828,828,828,828,828,828,828,828,828,828,828,828,828,828,828,828,828,828,828,831,831,831,831,831,831,834,834,834,837,837,840,843,846,849,849,852,855,861,867,873,876,879,879,879,879,882,882,882,885,885,888,888,888,888,888,888,888,888,891,891,894,897,900,900,900,906,912,915,921,927,933,936,942,951,957,966,972,975,978,981,984,990,996,1002,1011,1017,1023,1029,1035,1041,1047,1053,1062,1068,1074,1080,1095,1107,1122,1134,1146,1158,1173,1185,1197,1209,1221,1233,1239,1236,1242,1251,1260,1269,1278,1284,1293,1302,1305,1308,1311,1314,1314,1317,1320,1323,1326,1329,1332,1335,1335,1338,1341,1344,1347,1353,1353,1356,1356,1356,1356,1356,1356,1356,1359,1359,1359,1359,1365,1368,1371,1374,1374,1374,1374,1374,1377,1377,1380,1383,1383,1380,1380,1380,1380,1383,1386,1392,1398,1401,1401,1404,1407,1410,1416,1419,1422,1425,1428,1431,1434,1434,1434,1434,1434,1431,1431,1428,1431,1434,1434,1434,1434,1437,1440,1440,1443,1443,1443,1446,1446,1449,1449,1449,1449,1452,1455,1458
1281,1287,1293,1299,1305,1311,1317,1323,1329,1332,1335,1341,1344,1350,1353,1359,1362,1365,1368,1371,1374,1380,1383,1386,1389,1392,1395,1398,1401,1401,1404,1404,1407,1407,1407,1407,1407,1407,1407,1407,1407,1410,1410,1413,1413,1416,1416,1416,1419,1419,1422,1422,1422,1422,1419,1419,1419,1419,1419,1419,1419,1419,1419,1419,1419,1419,1419,1419,1419,1419,1419,1416,1416,1416,1416,1416,1413,1413,1413,1413,1413,1413,1413,1413,1413,1413,1410,1410,1407,1404,1404,1401,1398,1398,1395,1392,1389,1389,1389,1386,1386,1386,1386,1383,1383,1383,1383,1383,1380,1380,1377,1374,1374,1371,1371,1368,1365,1365,1362,1359,1356,1353,1350,1347,1347,1344,1338,1332,1326,1320,1311,1293,1269,1248,1224,1191,1143,1092,1074,1059,1047,1035,1026,1023,1017,1011,1005,996,987,984,981,978,969,963,954,948,939,936,930,927,924,918,912,909,906,903,900,897,894,894,891,891,891,888,888,888,885,885,885,882,882,882,879,879,879,879,879,876,876,876,873,873,870,873,873,873,873,873,873,876,876,876,876,876,876,876,876,876,876,876,876,876,876,876,876,876,876,876,876,873,873,873,870,870,867,867,864,864,864,864,867,867,867,864,864,864,864,864,861,861,861,861,861,861,861,861,861,861,861,861,864,864,861,858,858,858,858,855,855,855,855,855,855,855,852,852,852,852,852,852,852,852,852,852,852,852,852,852,852,852,852,852,852,852,852,849,849,849,849,849,849,849,849,849,849,849,849,849,849,849,849,849,846,846,846,846,846,846,846,846,843,843,843,843,843,843,843,843,843,843,843,846,846,846,843,843,843,843,843,843,843,846,846,846,846,846,846,846,846,843,843,843,843,843,843,843,843,843,843,843,840,840,840,840,840,840,840,840,840,840,840,840,840,840,840,840,840,840,840,840,840,837,837,837,837,837,837,834,834,834,834,834,834,834,834,834,834,834,834,831,831,831,831,831,831,831,831,828,828,828,828,828,828,828,828,828,828,828,828,828,828,828,828,828,831,831,831,831,831,834,834,834,837,837,840,843,843,846,846,849,852,855,858,861,867,873,879,885,885,885,885,888,888,888,888,891,891,894,894,894,894,894,894,894,897,897,900,900,903,906,909,912,918,924,930,933,939,945,954,960,969,975,984,987,990,993,999,1005,1008,1014,1020,1026,1035,1041,1047,1053,1059,1065,1071,1080,1086,1095,1107,1119,1134,1146,1161,1173,1188,1200,1212,1224,1239,1251,1260,1260,1257,1263,1272,1281,1290,1299,1308,1311,1311,1314,1317,1320,1323,1326,1326,1329,1332,1335,1338,1341,1344,1347,1350,1353,1356,1359,1359,1362,1362,1362,1362,1362,1362,1362,1362,1365,1365,1365,1368,1371,1374,1380,1383,1383,1383,1383,1386,1386,1389,1392,1392,1395,1395,1395,1398,1398,1398,1401,1404,1407,1407,1410,1413,1416,1419,1422,1425,1428,1431,1434,1437,1440,1440,1437,1434,1434,1431,1431,1434,1437,1440,1440,1440,1440,1440,1443,1446,1446,1449,1449,1452,1452,1455,1455,1455,1458,1458,1461,1464
1278,1284,1290,1296,1302,1308,1314,1320,1323,1329,1332,1338,1341,1347,1350,1356,1359,1362,1365,1368,1371,1377,1380,1383,1386,1389,1392,1395,1398,1401,1401,1401,1401,1401,1401,1404,1404,1404,1404,1404,1404,1407,1407,1407,1410,1410,1410,1413,1413,1416,1419,1419,1419,1416,1416,1416,1416,1416,1416,1416,1416,1416,1416,1416,1416,1416,1416,1416,1416,1416,1413,1413,1413,1413,1413,1410,1410,1410,1410,1410,1410,1410,1410,1410,1407,1407,1407,1404,1404,1401,1398,1389,1383,1380,1377,1377,1380,1383,1383,1383,1380,1380,1380,1380,1380,1380,1380,1380,1377,1374,1374,1371,1371,1368,1365,1365,1362,1362,1359,1356,1353,1350,1347,1344,1341,1335,1329,1323,1317,1305,1281,1263,1245,1221,1173,1113,1083,1062,1044,1029,1020,1017,1011,1008,1002,996,987,978,975,972,969,966,960,951,945,936,933,930,927,921,918,912,906,903,900,897,894,891,888,888,888,885,885,885,885,885,885,882,882,882,879,879,879,879,879,876,876,876,876,873,873,870,873,873,873,873,873,873,876,876,876,876,876,876,876,876,876,876,876,876,876,876,876,873,873,873,873,873,873,873,870,870,867,867,864,864,861,861,861,861,864,864,864,864,861,861,861,861,861,861,861,861,861,861,861,861,861,861,861,861,861,864,861,861,861,858,855,855,855,855,855,855,855,855,855,852,852,852,852,852,852,852,852,852,852,852,852,852,852,852,852,852,852,852,852,852,849,849,849,849,849,849,849,849,849,849,849,849,849,849,849,849,849,849,846,846,846,846,846,846,846,843,843,843,843,843,843,843,843,843,843,843,843,843,843,843,843,843,843,843,843,846,846,846,846,846,846,846,846,846,843,843,843,843,843,843,843,843,843,843,843,843,840,840,840,840,840,840,840,840,840,840,840,840,840,840,840,840,840,840,840,837,837,837,837,837,837,834,834,834,834,834,834,834,834,834,834,834,834,831,831,831,831,831,831,831,831,831,831,831,831,831,828,828,828,828,828,828,828,828,828,828,831,831,831,834,834,834,837,837,837,840,840,843,846,849,849,852,852,855,858,858,861,867,873,879,885,891,891,891,891,894,894,894,894,897,897,900,900,900,900,897,900,903,906,909,912,912,915,918,921,927,933,936,942,948,954,963,972,978,987,993,1002,1005,1008,1011,1017,1023,1026,1032,1038,1044,1050,1059,1065,1071,1077,1086,1092,1101,1107,1119,1131,1146,1158,1170,1185,1197,1212,1224,1239,1251,1263,1278,1287,1281,1278,1284,1293,1302,1311,1320,1320,1323,1323,1323,1326,1329,1332,1335,1335,1338,1341,1344,1347,1350,1353,1356,1359,1362,1362,1365,1365,1368,1368,1368,1368,1368,1368,1368,1368,1368,1371,1371,1374,1377,1383,1386,1389,1392,1392,1395,1398,1398,1398,1401,1401,1401,1404,1404,1404,1407,1407,1410,1413,1413,1416,1419,1419,1422,1425,1428,1431,1437,1440,1443,1443,1443,1443,1443,1440,1440,1440,1440,1440,1446,1446,1446,1446,1446,1446,1446,1449,1452,1452,1455,1458,1458,1461,1461,1461,1464,1467,1470,1470
1272,1278,1284,1290,1299,1305,1311,1317,1320,1326,1329,1335,1338,1344,1347,1353,1356,1359,1362,1365,1368,1374,1377,1380,1383,1386,1389,1392,1395,1398,1398,1398,1398,1398,1398,1398,1398,1398,1398,1398,1401,1401,1404,1404,1404,1407,1407,1407,1410,1410,1413,1416,1416,1413,1413,1413,1413,1413,1413,1413,1413,1413,1413,1413,1413,1413,1413,1413,1410,1410,1410,1410,1410,1410,1407,1407,1407,1407,1407,1407,1407,1407,1404,1404,1401,1401,1401,1401,1398,1392,1383,1374,1365,1356,1362,1365,1371,1377,1377,1377,1377,1377,1377,1377,1374,1374,1374,1374,1374,1371,1371,1368,1365,1365,1362,1362,1359,1359,1356,1353,1350,1347,1344,1338,1332,1326,1320,1311,1302,1287,1269,1251,1215,1143,1110,1086,1062,1041,1023,1014,1005,1002,996,993,987,978,972,969,966,960,957,954,948,939,936,933,930,924,921,918,912,906,900,894,894,891,888,885,885,882,882,882,879,879,882,882,882,882,879,879,879,876,876,876,876,876,873,873,873,873,873,873,873,873,873,873,873,873,876,876,876,876,876,876,876,876,876,876,873,873,873,873,873,873,873,873,873,870,870,870,870,867,867,864,864,861,861,861,861,861,864,864,864,861,861,861,861,861,861,861,861,861,861,861,861,858,858,858,858,861,861,864,864,861,858,858,855,855,855,855,855,855,855,855,855,855,852,852,852,852,852,852,852,852,852,852,852,852,852,852,852,852,852,852,852,852,852,849,849,849,849,849,849,849,849,849,849,849,849,849,849,849,849,849,849,846,846,846,846,846,846,846,843,843,843,843,843,843,843,843,843,843,843,843,843,843,840,840,843,843,843,846,846,846,846,846,846,846,846,846,846,843,843,843,843,843,843,843,843,843,843,843,843,843,843,843,840,840,840,840,840,840,840,840,840,840,840,840,840,840,840,837,837,837,837,837,837,834,834,834,834,834,834,834,834,834,834,834,834,831,831,831,831,831,831,831,831,831,831,831,831,831,831,831,831,831,831,828,828,831,831,831,834,834,837,837,837,840,840,840,843,846,849,849,852,852,855,858,858,861,861,864,867,873,879,885,891,897,897,897,900,900,900,900,903,903,903,906,906,906,903,906,909,912,918,921,924,924,927,933,936,939,945,951,954,963,972,981,987,996,1005,1011,1017,1020,1026,1032,1035,1041,1044,1050,1059,1062,1071,1077,1083,1092,1098,1107,1113,1122,1131,1143,1155,1170,1182,1197,1209,1221,1236,1248,1263,1275,1287,1296,1302,1305,1299,1305,1314,1323,1329,1332,1332,1335,1335,1335,1338,1338,1341,1344,1344,1347,1350,1353,1356,1359,1362,1362,1365,1368,1368,1371,1371,1374,1377,1374,1374,1374,1374,1374,1374,1374,1377,1377,1380,1386,1389,1392,1398,1401,1404,1404,1404,1407,1407,1407,1410,1410,1410,1413,1413,1416,1416,1419,1422,1425,1425,1428,1428,1431,1434,1437,1440,1443,1446,1446,1446,1443,1446,1449,1446,1446,1449,1449,1449,1452,1452,1452,1452,1452,1452,1455,1455,1455,1458,1458,1461,1464,1464,1467,1470,1473,1473,1476,1479
1269,1275,1281,1287,1293,1299,1305,1311,1317,1323,1326,1332,1335,1341,1344,1350,1353,1356,1359,1362,1365,1371,1374,1377,1380,1383,1386,1389,1392,1395,1395,1395,1395,1395,1395,1395,1395,1395,1395,1395,1395,1398,1398,1398,1401,1401,1401,1404,1404,1407,1410,1413,1410,1410,1410,1410,1410,1410,1410,1410,1410,1407,1407,1407,1407,1407,1407,1407,1407,1407,1407,1407,1404,1404,1404,1404,1404,1404,1404,1401,1401,1398,1398,1395,1395,1392,1392,1395,1380,1368,1359,1350,1350,1350,1356,1359,1365,1371,1374,1374,1374,1371,1371,1371,1371,1371,1371,1371,1371,1368,1365,1365,1362,1362,1359,1356,1356,1353,1353,1350,1347,1341,1335,1329,1320,1314,1305,1296,1284,1272,1257,1173,1137,1113,1089,1062,1041,1026,1017,1005,993,987,981,978,969,963,960,957,954,951,948,945,939,936,930,927,924,921,915,912,906,900,894,888,885,885,882,882,879,879,876,876,876,876,876,879,879,879,876,876,876,876,876,873,873,873,873,873,873,873,873,870,873,873,873,873,873,873,873,873,876,876,876,876,873,873,873,873,873,873,873,873,870,870,870,870,870,870,870,867,867,864,864,861,861,861,861,861,861,861,864,864,861,861,861,861,861,861,861,861,861,861,858,858,858,858,858,858,858,861,861,861,861,861,858,855,855,855,855,855,855,855,855,855,855,855,855,852,852,852,852,852,852,852,852,852,852,852,852,852,852,852,852,852,852,852,852,849,849,849,849,849,849,849,849,849,849,849,849,849,849,849,849,849,849,849,849,846,846,846,846,846,846,846,843,843,843,843,843,843,843,843,843,843,843,840,840,840,840,843,843,846,846,846,846,846,846,846,846,846,846,846,843,843,843,843,843,843,843,843,843,843,843,843,843,843,843,840,840,840,840,840,840,843,843,840,840,840,840,840,840,837,837,837,837,837,837,834,834,834,834,834,834,834,834,834,834,834,834,831,831,831,834,834,834,834,834,834,834,834,834,834,834,831,831,831,831,831,834,834,834,837,837,837,840,840,843,843,843,846,849,852,855,855,858,858,861,864,864,867,867,873,879,885,888,894,897,903,903,906,906,906,906,909,909,909,909,912,912,912,912,915,918,924,927,930,936,939,942,945,948,951,957,963,972,981,990,999,1005,1014,1023,1029,1035,1038,1044,1050,1059,1059,1065,1071,1077,1083,1089,1098,1104,1110,1119,1125,1134,1143,1155,1167,1179,1194,1206,1221,1233,1248,1260,1272,1287,1296,1302,1311,1317,1323,1320,1326,1335,1341,1341,1344,1344,1344,1347,1347,1350,1350,1350,1353,1356,1356,1359,1362,1365,1365,1368,1368,1371,1374,1374,1377,1377,1380,1383,1383,1383,1380,1380,1380,1380,1380,1380,1383,1389,1392,1395,1401,1407,1410,1410,1413,1413,1413,1416,1416,1419,1419,1419,1419,1422,1425,1425,1428,1431,1434,1434,1434,1437,1440,1443,1446,1449,1449,1449,1446,1446,1446,1449,1452,1452,1455,1455,1455,1458,1458,1458,1458,1458,1458,1461,1461,1461,1461,1461,1464,1464,1467,1470,1470,1473,1476,1479,1482,1485
1266,1272,1278,1284,1287,1293,1299,1305,1311,1317,1323,1329,1332,1338,1344,1347,1350,1353,1356,1359,1362,1368,1371,1374,1377,1380,1383,1386,1389,1392,1395,1395,1395,1395,1395,1395,1392,1392,1392,1392,1392,1395,1395,1395,1395,1398,1398,1398,1401,1401,1407,1407,1407,1407,1407,1407,1407,1407,1407,1407,1404,1404,1404,1404,1404,1404,1404,1404,1404,1404,1404,1401,1401,1401,1401,1401,1398,1398,1398,1395,1395,1392,1392,1389,1389,1386,1386,1383,1365,1350,1341,1344,1344,1347,1350,1356,1362,1368,1371,1368,1368,1368,1368,1368,1368,1368,1368,1365,1365,1362,1359,1359,1356,1356,1353,1353,1350,1350,1347,1344,1338,1329,1320,1314,1305,1299,1290,1278,1263,1200,1164,1140,1113,1089,1065,1041,1029,1020,1008,996,984,972,966,960,954,951,948,945,945,942,939,939,933,930,927,924,918,915,912,906,900,894,888,882,879,879,876,876,873,873,873,873,873,873,876,876,876,876,876,876,876,873,873,873,873,873,873,873,873,873,873,870,870,873,873,873,873,873,873,873,873,873,873,873,873,873,873,873,870,870,870,870,870,870,870,870,867,867,867,867,864,864,864,861,861,861,861,861,861,861,861,861,861,861,861,861,861,861,861,861,861,858,858,858,858,858,858,858,858,858,858,858,858,858,855,855,855,855,855,855,855,855,855,855,855,855,855,855,852,852,852,852,852,852,852,852,852,852,852,852,852,852,852,852,852,852,852,852,849,849,849,849,849,849,849,849,849,849,849,849,849,849,849,849,849,849,849,849,849,846,846,846,846,846,846,846,843,843,843,843,843,843,843,843,843,843,843,843,843,843,843,846,846,846,846,846,846,846,846,846,846,846,846,846,843,843,843,843,843,843,843,843,843,843,843,843,843,843,843,840,840,840,840,843,843,840,840,840,840,840,840,837,837,837,837,837,837,834,834,834,834,834,834,834,834,834,834,834,834,831,834,834,834,834,834,834,834,834,834,834,834,834,834,834,834,834,834,834,837,837,840,840,840,843,843,843,846,849,849,852,855,858,861,861,864,864,867,867,870,873,879,885,891,897,900,906,909,912,912,912,912,912,915,915,915,915,918,918,918,921,924,924,927,933,936,945,954,960,963,963,966,969,975,984,993,1002,1011,1020,1026,1035,1044,1053,1059,1059,1065,1071,1077,1083,1086,1092,1098,1104,1110,1116,1125,1131,1140,1149,1158,1167,1179,1191,1206,1218,1233,1245,1257,1272,1284,1296,1305,1311,1317,1323,1332,1338,1344,1347,1350,1353,1353,1356,1356,1356,1359,1359,1359,1362,1362,1362,1365,1365,1365,1368,1371,1371,1374,1374,1377,1380,1380,1383,1383,1386,1389,1389,1389,1389,1386,1386,1386,1386,1386,1392,1395,1401,1404,1410,1413,1416,1419,1419,1422,1422,1425,1425,1425,1428,1428,1428,1428,1428,1431,1434,1437,1440,1443,1443,1446,1449,1452,1455,1452,1452,1449,1449,1446,1449,1452,1455,1455,1455,1458,1458,1461,1464,1464,1464,1464,1467,1467,1467,1467,1467,1467,1467,1470,1470,1473,1476,1476,1479,1482,1485,1488
1263,1269,1275,1281,1287,1290,1296,1302,1308,1314,1320,1326,1332,1335,1341,1344,1347,1350,1353,1356,1359,1365,1368,1371,1374,1377,1380,1383,1386,1389,1392,1392,1392,1392,1392,1392,1392,1392,1392,1392,1392,1392,1392,1392,1395,1395,1395,1398,1398,1398,1401,1404,1404,1404,1404,1404,1404,1404,1404,1401,1401,1401,1401,1401,1401,1401,1401,1401,1398,1398,1398,1398,1398,1398,1395,1395,1392,1392,1389,1389,1386,1386,1383,1383,1383,1380,1380,1368,1350,1341,1329,1323,1326,1332,1344,1353,1362,1365,1365,1365,1365,1365,1365,1365,1365,1362,1362,1359,1356,1353,1353,1350,1350,1347,1347,1344,1344,1341,1335,1329,1323,1314,1308,1299,1293,1284,1269,1230,1191,1164,1140,1116,1089,1047,1032,1020,1011,1002,990,981,972,963,954,948,945,945,942,942,939,936,936,933,930,924,921,918,915,909,906,900,894,888,882,876,876,876,876,876,873,873,873,873,873,876,876,876,876,876,876,876,873,873,873,873,876,876,876,876,876,873,873,870,870,870,870,873,873,873,873,873,873,873,873,873,873,870,870,870,870,870,870,867,867,867,867,867,867,867,864,864,864,864,861,861,861,861,861,861,861,861,861,861,861,861,861,861,861,861,861,861,858,858,858,858,858,858,858,858,858,858,858,855,855,855,855,855,855,855,855,855,855,855,855,855,855,855,855,855,855,852,852,852,852,852,852,852,852,852,852,852,852,852,852,852,852,852,852,852,849,849,849,849,849,849,849,849,849,849,849,849,849,849,849,849,849,849,849,849,849,849,846,846,846,846,846,846,846,843,843,843,843,843,843,843,843,843,843,843,843,843,843,843,846,846,846,846,846,846,846,846,846,846,846,846,846,843,843,843,843,843,843,843,843,843,843,843,843,843,843,843,843,843,843,843,843,840,840,840,840,840,840,837,837,837,837,837,837,834,834,834,834,834,834,834,834,834,834,834,834,834,834,834,834,834,834,834,834,834,834,834,834,834,834,834,837,837,837,837,840,843,843,843,846,846,846,849,852,855,858,861,864,864,867,867,870,870,873,873,879,885,891,897,903,909,912,918,921,921,921,921,921,921,921,921,924,924,924,924,927,930,933,936,936,942,951,960,969,978,981,984,987,990,996,1005,1017,1026,1035,1044,1050,1059,1068,1077,1083,1086,1092,1095,1098,1104,1107,1113,1119,1125,1131,1137,1143,1152,1161,1170,1179,1191,1203,1215,1230,1242,1257,1269,1284,1296,1305,1311,1320,1326,1332,1338,1344,1353,1359,1359,1362,1362,1362,1365,1365,1365,1365,1368,1368,1368,1368,1371,1371,1374,1374,1377,1377,1377,1380,1380,1383,1386,1386,1389,1389,1392,1395,1395,1398,1395,1395,1395,1392,1392,1395,1398,1404,1407,1413,1419,1419,1422,1425,1428,1428,1431,1431,1434,1434,1434,1437,1437,1434,1434,1437,1440,1443,1446,1449,1452,1455,1458,1458,1455,1455,1452,1452,1452,1449,1452,1455,1458,1458,1458,1461,1467,1470,1467,1467,1470,1470,1470,1473,1473,1473,1473,1473,1473,1473,1476,1476,1479,1482,1482,1485,1488,1491
1260,1266,1272,1278,1284,1287,1293,1299,1305,1311,1317,1323,1329,1335,1338,1341,1344,1347,1350,1353,1356,1362,1365,1368,1371,1374,1377,1380,1383,1386,1389,1389,1392,1392,1392,1392,1392,1392,1392,1392,1392,1392,1392,1392,1392,1392,1392,1395,1395,1395,1398,1401,1401,1401,1401,1401,1401,1401,1401,1398,1398,1398,1398,1398,1398,1398,1398,1395,1395,1395,1395,1392,1392,1389,1389,1389,1386,1386,1383,1383,1380,1380,1377,1377,1374,1374,1368,1356,1344,1332,1323,1311,1317,1329,1341,1353,1359,1362,1362,1362,1362,1362,1362,1362,1359,1356,1356,1353,1350,1347,1344,1341,1341,1338,1338,1335,1329,1323,1320,1311,1305,1299,1293,1284,1275,1257,1215,1191,1167,1140,1113,1062,1035,1023,1011,999,990,981,972,963,951,945,942,942,942,939,939,936,933,933,930,927,924,921,918,912,909,906,897,891,885,879,876,876,876,876,876,876,876,876,876,876,876,873,873,873,873,873,873,876,876,876,876,876,876,876,876,876,876,873,873,873,870,870,870,870,873,873,873,873,873,870,870,870,870,870,870,870,867,867,867,867,867,867,867,864,864,864,864,864,864,864,861,861,861,861,861,861,861,861,861,861,861,861,861,861,861,861,861,858,858,858,858,858,858,858,858,858,858,858,858,858,855,855,855,855,855,855,855,855,855,855,855,855,855,855,855,855,855,855,852,852,852,852,852,852,852,852,852,852,852,852,852,852,852,852,852,852,852,849,849,849,849,849,849,849,849,849,849,849,849,849,849,849,849,849,849,849,849,849,849,849,846,846,846,846,846,846,846,843,843,843,843,843,843,846,846,843,843,843,843,846,846,846,846,846,846,846,846,846,846,846,846,846,846,843,843,843,843,843,843,843,843,843,843,843,843,843,843,843,843,843,843,843,843,843,840,840,840,840,840,837,837,837,837,837,837,834,834,834,834,834,834,834,834,834,834,834,834,834,834,834,834,834,834,834,834,834,834,834,834,834,837,837,837,840,840,843,846,846,846,849,849,849,852,855,858,861,864,867,870,870,873,873,876,876,882,888,894,900,906,912,918,921,927,930,933,933,930,930,930,930,930,930,930,930,930,933,936,939,939,945,954,966,972,978,984,993,1002,1002,1008,1014,1017,1026,1035,1047,1059,1068,1077,1083,1092,1101,1110,1116,1119,1122,1125,1128,1131,1137,1140,1146,1149,1158,1167,1176,1185,1194,1203,1212,1227,1239,1254,1266,1281,1293,1305,1314,1320,1326,1332,1341,1347,1353,1359,1365,1365,1368,1368,1368,1371,1371,1371,1374,1374,1374,1374,1377,1377,1380,1380,1383,1383,1386,1386,1386,1389,1389,1389,1392,1392,1395,1395,1398,1401,1401,1404,1404,1404,1401,1401,1401,1401,1407,1413,1416,1422,1425,1428,1431,1434,1434,1437,1437,1440,1440,1443,1443,1446,1443,1443,1443,1443,1446,1449,1455,1458,1458,1461,1461,1458,1458,1458,1458,1458,1458,1455,1455,1458,1461,1461,1464,1470,1473,1473,1473,1473,1473,1476,1476,1476,1479,1479,1479,1479,1479,1482,1482,1482,1482,1485,1488,1488,1491,1494
1257,1263,1269,1275,1281,1287,1290,1296,1302,1308,1314,1320,1326,1332,1335,1338,1341,1344,1347,1350,1353,1359,1362,1365,1368,1371,1374,1377,1380,1383,1386,1386,1389,1392,1392,1392,1392,1392,1392,1392,1392,1392,1392,1392,1392,1392,1392,1392,1392,1395,1395,1398,1398,1398,1398,1398,1398,1398,1395,1395,1395,1395,1395,1395,1395,1395,1395,1395,1392,1392,1392,1392,1389,1386,1386,1383,1383,1380,1380,1377,1377,1374,1374,1371,1371,1368,1359,1347,1335,1323,1317,1317,1314,1326,1338,1350,1356,1359,1359,1359,1359,1359,1356,1356,1353,1350,1347,1344,1341,1338,1338,1335,1332,1332,1326,1320,1314,1308,1302,1296,1290,1284,1278,1269,1242,1215,1188,1161,1131,1077,1038,1026,1014,1002,990,981,972,960,951,942,942,939,936,933,933,933,933,930,930,927,924,924,918,915,912,909,903,897,888,882,879,876,876,876,876,876,876,876,876,876,876,876,876,876,876,873,873,873,873,876,876,876,876,879,879,879,879,876,876,873,873,873,870,870,870,870,870,873,870,870,870,870,870,870,870,867,867,867,867,867,867,867,864,864,864,864,864,864,864,864,864,864,861,861,861,861,861,861,861,861,861,861,861,861,861,861,861,861,858,858,858,858,858,858,858,858,858,858,858,858,858,858,858,858,855,855,855,855,855,855,855,855,855,855,855,855,855,855,855,855,855,855,852,852,852,852,852,852,852,852,852,852,852,852,852,852,852,852,852,849,849,849,849,849,849,849,849,849,849,849,849,849,849,849,849,849,849,849,849,849,849,849,849,849,846,846,846,846,846,846,846,846,846,846,846,846,846,846,846,846,846,846,846,846,846,846,846,846,846,846,846,846,846,846,846,843,843,843,843,843,843,843,843,843,843,843,843,843,843,843,843,843,843,843,843,843,840,840,840,840,840,837,837,837,837,837,837,834,834,834,834,834,834,834,834,834,834,834,834,834,834,834,837,837,837,837,837,837,837,837,837,837,837,840,840,843,843,846,849,849,852,852,855,858,861,861,864,867,870,873,876,876,876,879,882,885,894,900,906,912,918,924,930,933,939,942,942,942,939,939,939,939,939,939,939,939,939,942,942,945,954,963,972,984,993,999,1008,1014,1020,1026,1029,1035,1041,1047,1059,1065,1077,1086,1098,1107,1116,1125,1134,1143,1146,1149,1152,1155,1158,1161,1167,1170,1173,1179,1188,1197,1206,1215,1224,1236,1251,1266,1278,1293,1305,1314,1320,1329,1335,1341,1347,1353,1362,1368,1368,1371,1374,1374,1377,1377,1377,1380,1380,1380,1380,1383,1383,1386,1386,1389,1389,1392,1392,1392,1395,1395,1395,1398,1398,1401,1401,1401,1404,1404,1407,1407,1410,1410,1410,1410,1410,1410,1413,1416,1422,1425,1428,1431,1434,1437,1440,1443,1443,1446,1446,1449,1449,1452,1452,1452,1452,1452,1455,1455,1458,1461,1464,1467,1467,1467,1467,1467,1467,1464,1464,1461,1461,1461,1461,1464,1470,1473,1476,1479,1479,1479,1479,1479,1479,1479,1482,1482,1482,1485,1485,1485,1488,1488,1488,1488,1488,1491,1494,1497,1500
1254,1260,1266,1272,1278,1284,1287,1293,1299,1305,1311,1317,1323,1329,1332,1335,1338,1341,1344,1347,1353,1356,1359,1362,1365,1368,1371,1374,1377,1380,1383,1386,1386,1389,1389,1392,1392,1392,1392,1389,1392,1392,1392,1392,1392,1392,1392,1392,1392,1392,1392,1392,1395,1395,1395,1395,1395,1392,1392,1392,1392,1392,1392,1392,1392,1392,1392,1392,1392,1392,1392,1389,1389,1386,1383,1380,1377,1377,1374,1374,1371,1371,1368,1368,1365,1362,1350,1335,1326,1323,1320,1317,1314,1323,1332,1341,1350,1356,1356,1356,1356,1353,1350,1347,1344,1341,1338,1338,1335,1332,1329,1326,1320,1314,1308,1305,1299,1293,1287,1281,1275,1269,1254,1230,1209,1185,1143,1092,1041,1029,1017,1005,993,981,969,960,951,942,939,936,933,930,927,927,927,927,927,924,924,921,921,918,915,909,906,900,894,888,879,879,879,876,876,876,876,876,876,876,876,876,876,876,876,876,876,876,876,876,876,876,876,876,879,879,879,879,879,876,876,876,873,873,870,870,870,870,870,870,870,870,870,870,867,867,867,867,867,867,867,864,864,864,864,864,864,864,864,864,864,864,864,861,861,861,861,861,861,861,861,861,861,861,861,861,861,861,861,858,858,858,858,858,858,858,858,858,858,858,858,858,858,858,858,858,858,855,855,855,855,855,855,855,855,855,855,855,855,855,855,855,855,855,855,852,852,852,852,852,852,852,852,852,852,852,852,852,852,852,852,852,849,849,849,849,849,849,849,849,849,849,849,849,849,849,849,849,849,849,849,849,849,849,849,849,849,849,846,846,846,846,846,846,846,846,846,846,846,846,846,846,846,846,846,846,846,846,846,846,846,846,843,843,843,843,843,843,843,843,843,843,843,843,843,843,843,843,843,843,843,843,843,843,843,843,843,843,840,840,840,840,840,837,837,837,837,837,837,834,834,834,834,834,834,834,834,834,834,837,837,837,837,837,837,837,837,837,837,837,837,837,840,840,840,843,843,846,849,849,852,855,855,858,861,864,867,870,873,873,876,879,879,882,882,885,891,894,900,909,918,924,930,936,942,948,951,951,951,951,951,948,948,948,948,948,945,945,945,948,954,963,972,981,990,1002,1014,1023,1029,1035,1041,1047,1053,1059,1062,1068,1074,1086,1095,1107,1116,1128,1137,1149,1158,1167,1173,1176,1179,1182,1185,1188,1191,1197,1200,1203,1212,1221,1230,1239,1248,1263,1275,1290,1302,1314,1323,1329,1335,1341,1350,1356,1362,1368,1371,1374,1377,1377,1380,1383,1383,1386,1386,1386,1386,1389,1389,1389,1392,1392,1395,1395,1398,1398,1401,1401,1404,1404,1404,1407,1407,1407,1410,1410,1410,1413,1413,1416,1416,1416,1419,1419,1419,1422,1422,1425,1431,1434,1437,1440,1443,1446,1446,1449,1452,1452,1455,1455,1458,1461,1461,1461,1461,1464,1464,1464,1467,1470,1473,1473,1473,1473,1473,1473,1473,1470,1470,1467,1467,1467,1470,1473,1476,1479,1482,1485,1485,1485,1485,1485,1485,1485,1485,1488,1488,1488,1491,1491,1491,1494,1494,1494,1494,1494,1497,1500,1503
1251,1257,1260,1269,1275,1281,1284,1290,1296,1302,1308,1314,1320,1326,1329,1332,1335,1338,1341,1347,1350,1353,1356,1359,1362,1365,1368,1371,1374,1377,1380,1383,1383,1386,1389,1389,1389,1389,1389,1389,1389,1389,1389,1389,1389,1389,1392,1392,1392,1392,1392,1392,1392,1392,1392,1392,1392,1392,1389,1389,1389,1389,1389,1389,1389,1389,1389,1389,1389,1389,1389,1389,1386,1386,1383,1380,1377,1374,1371,1368,1368,1365,1365,1362,1362,1353,1341,1323,1305,1287,1287,1290,1308,1323,1329,1338,1344,1350,1353,1350,1347,1344,1344,1341,1338,1335,1335,1332,1329,1329,1323,1317,1308,1299,1293,1287,1281,1278,1269,1263,1251,1230,1209,1188,1158,1107,1053,1032,1020,1008,996,984,972,960,951,942,936,933,930,927,927,924,921,918,918,918,918,918,918,918,915,912,909,903,897,891,885,882,879,879,879,876,876,876,876,876,876,876,876,876,876,876,876,876,876,876,876,876,876,876,876,876,879,879,879,879,879,876,876,876,873,873,873,870,870,870,870,870,870,867,867,867,867,867,867,867,867,867,867,864,864,864,864,864,864,864,864,864,864,864,864,861,861,861,861,861,861,861,861,861,861,861,861,861,861,861,858,858,858,858,858,858,858,858,858,858,858,858,858,858,858,858,858,858,858,858,855,855,855,855,855,855,855,855,855,855,855,855,855,855,855,855,855,855,855,852,852,852,852,852,852,852,852,852,852,852,852,852,852,852,849,849,849,849,849,849,849,849,849,849,849,849,849,849,849,849,849,849,849,849,849,849,849,849,849,849,849,846,846,846,846,846,846,846,846,846,846,846,846,846,846,846,846,846,846,843,843,843,843,843,843,843,843,843,843,843,843,840,840,840,840,840,840,843,843,843,843,843,843,843,843,843,843,843,843,843,840,840,840,840,840,837,837,837,837,837,837,834,834,834,834,834,834,834,834,837,837,837,837,837,837,837,837,837,837,837,837,837,840,840,843,843,846,846,849,852,852,855,855,858,861,864,867,870,873,876,879,882,882,885,885,888,891,897,900,903,906,915,927,936,942,948,954,960,963,960,960,960,960,960,957,957,957,954,954,954,954,963,972,981,990,999,1008,1020,1032,1044,1050,1059,1065,1068,1074,1080,1086,1092,1095,1104,1113,1125,1134,1146,1155,1167,1176,1188,1197,1203,1206,1209,1212,1215,1218,1221,1227,1230,1233,1242,1251,1260,1272,1287,1299,1314,1320,1329,1335,1341,1350,1356,1362,1371,1377,1377,1380,1380,1383,1386,1386,1389,1389,1392,1392,1395,1395,1395,1398,1398,1401,1401,1404,1404,1407,1407,1410,1410,1413,1413,1413,1416,1416,1416,1419,1419,1419,1422,1422,1425,1425,1428,1428,1431,1431,1434,1434,1437,1437,1440,1443,1446,1449,1452,1455,1455,1458,1461,1461,1464,1467,1467,1470,1470,1470,1473,1473,1476,1476,1476,1479,1479,1479,1482,1479,1479,1476,1476,1473,1473,1473,1476,1479,1482,1485,1488,1491,1491,1491,1491,1491,1488,1488,1488,1491,1491,1491,1494,1494,1497,1497,1497,1500,1500,1500,1500,1503,1503,1506
