2176,2170,2167,2161,2155,2152,2146,2143,2137,2134,2131,2131,2131,2134,2134,2137,2137,2140,2143,2149,2152,2158,2161,2167,2173,2176,2182,2188,2194,2203,2215,2227,2242,2251,2263,2275,2287,2302,2314,2320,2323,2323,2323,2326,2323,2320,2317,2311,2308,2302,2296,2290,2284,2278,2272,2266,2260,2254,2248,2242,2236,2233,2227,2224,2218,2212,2209,2203,2200,2194,2191,2185,2179,2176,2170,2167,2161,2155,2152,2149,2146,2143,2140,2137,2137,2137,2134,2134,2134,2134,2131,2131,2131,2131,2131,2131,2128,2128,2125,2122,2119,2116,2110,2107,2101,2098,2092,2089,2083,2080,2074,2071,2065,2062,2062,2056,2050,2047,2044,2041,2038,2032,2029,2026,2023,2020,2014,2011,2008,2005,2002,1996,1993,1990,1987,1984,1981,1981,1978,1978,1978,1975,1975,1975,1975,1972,1972,1972,1972,1969,1969,1969,1972,1972,1969,1966,1966,1963,1960,1957,1954,1954,1951,1948,1945,1942,1939,1939,1936,1933,1930,1927,1927,1924,1927,1927,1927,1927,1927,1927,1927,1927,1927,1930,1930,1930,1930,1930,1930,1930,1930,1930,1933,1933,1933,1933,1933,1933,1933,1933,1933,1936,1936,1936,1936,1936,1936,1936,1936,1936,1939,1939,1939,1936,1933,1930,1927,1924,1918,1915,1912,1909,1906,1903,1900,1897,1891,1888,1885,1882,1876,1873,1867,1864,1858,1855,1849,1846,1840,1837,1831,1828,1825,1819,1813,1807,1801,1798,1792,1789,1786,1786,1783,1780,1777,1777,1774,1771,1768,1765,1762,1759,1756,1753,1750,1744,1741,1738,1735,1732,1729,1726,1726,1723,1720,1717,1717,1714,1711,1708,1705,1705,1702,1699,1696,1696,1693,1690,1687,1684,1684,1681,1678,1675,1672,1669,1666,1663,1660,1657,1654,1651,1648,1645,1642,1639,1636,1633,1630,1627,1624,1621,1618,1615,1612,1609,1606,1603,1600,1597,1594,1591,1588,1585,1582,1582,1579,1579,1576,1573,1570,1567,1567,1564,1561,1558,1555,1552,1549,1549,1546,1543,1540,1537,1534,1534,1531,1528,1525,1522,1519,1516,1516,1513,1510,1507,1504,1501,1498,1495,1492,1489,1486,1483,1480,1477,1474,1471,1468,1465,1462,1456,1453,1450,1447,1441,1438,1435,1429,1426,1423,1420,1414,1411,1408,1402,1399,1396,1390,1384,1381,1375,1372,1366,1360,1354,1345,1339,1336,1333,1327,1324,1321,1318,1312,1309,1306,1300,1297,1294,1291,1288,1288,1285,1285,1282,1282,1279,1279,1276,1276,1273,1273,1270,1270,1267,1264,1264,1261,1261,1258,1255,1255,1252,1252,1249,1249,1246,1243,1240,1234,1231,1228,1222,1219,1213,1210,1207,1204,1198,1195,1192,1189,1186,1180,1177,1174,1171,1171,1168,1168,1165,1165,1162,1159,1159,1156,1153,1153,1150,1147,1147,1144,1141,1141,1138,1138,1138,1135,1132,1129,1126,1126,1123,1120,1117,1114,1111,1108,1108,1105,1102,1099,1096,1093,1087,1084,1078,1075,1072,1066,1063,1060,1054,1051,1048,1042,1039,1036,1033,1027,1024,1021,1012,1006,1000,991,985,979,973,970,964,958,955,949,943,937,934,928,922,916,913,907,901,895,889,883,877,871,865,859,856,850,847,841,838,832,829,823,817,814,808,802,799,793,787,784,778,772,766,763,757,751,748,742,736,733,727,721,715,712,706,700,694,688,685,679,676,670,664,658,655,649,643,640,634,628,625,619,613,610,604,598,595,589,583,580,574,568,562,559,553,547,544,538,535,529,526,520,520,517,514,511,511,508,502,496,493,487,481,475,472,466,460,454,451,448,445,445,445,445,445,445,445,445,445,445,445,445,445
2185,2179,2173,2170,2164,2161,2155,2152,2149,2146,2146,2143,2140,2137,2140,2140,2143,2146,2149,2152,2158,2164,2167,2173,2179,2182,2188,2194,2200,2206,2218,2230,2242,2251,2263,2275,2290,2305,2314,2323,2323,2323,2326,2323,2323,2320,2317,2311,2305,2299,2293,2287,2284,2278,2272,2266,2260,2254,2248,2242,2236,2230,2224,2221,2215,2209,2206,2200,2197,2191,2185,2182,2176,2173,2167,2164,2158,2155,2152,2149,2146,2143,2140,2140,2140,2137,2137,2137,2134,2134,2134,2131,2131,2131,2131,2131,2131,2131,2128,2125,2119,2116,2110,2107,2101,2098,2092,2089,2083,2077,2074,2068,2065,2065,2062,2059,2053,2047,2044,2041,2038,2032,2029,2026,2023,2020,2014,2011,2008,2005,2002,1999,1993,1990,1987,1984,1981,1978,1975,1975,1972,1972,1972,1972,1969,1969,1969,1969,1966,1966,1966,1963,1963,1963,1960,1960,1957,1954,1951,1948,1945,1945,1942,1939,1936,1933,1933,1930,1927,1924,1921,1921,1918,1921,1921,1921,1921,1921,1921,1921,1921,1921,1924,1924,1924,1924,1924,1924,1924,1924,1924,1927,1927,1927,1927,1927,1927,1927,1927,1927,1930,1930,1930,1930,1930,1930,1930,1930,1930,1933,1933,1933,1936,1933,1933,1930,1927,1921,1918,1915,1912,1909,1906,1900,1897,1894,1891,1888,1885,1882,1879,1873,1867,1864,1861,1855,1852,1846,1843,1837,1834,1828,1825,1819,1816,1810,1804,1801,1795,1792,1789,1789,1786,1783,1780,1777,1774,1771,1768,1765,1762,1759,1756,1750,1747,1744,1741,1738,1732,1729,1726,1726,1723,1723,1720,1717,1714,1711,1711,1708,1705,1702,1702,1699,1696,1693,1690,1687,1684,1684,1681,1678,1675,1672,1669,1666,1660,1660,1657,1654,1651,1651,1648,1645,1642,1639,1636,1633,1630,1627,1624,1621,1615,1612,1609,1606,1603,1600,1597,1594,1591,1588,1585,1585,1582,1579,1579,1576,1573,1573,1570,1567,1564,1564,1561,1558,1555,1552,1549,1546,1546,1543,1540,1537,1534,1531,1528,1528,1525,1522,1519,1516,1513,1510,1507,1504,1501,1498,1498,1495,1492,1489,1486,1483,1480,1477,1474,1471,1468,1462,1459,1456,1453,1450,1444,1441,1438,1432,1429,1426,1423,1417,1414,1411,1405,1402,1399,1393,1387,1384,1378,1372,1369,1366,1357,1351,1345,1339,1333,1327,1324,1318,1315,1312,1309,1303,1300,1297,1291,1288,1285,1282,1282,1279,1279,1276,1276,1273,1273,1270,1270,1267,1267,1264,1264,1261,1261,1258,1255,1255,1252,1252,1249,1249,1246,1243,1243,1240,1240,1237,1234,1231,1225,1222,1216,1213,1207,1204,1201,1198,1195,1189,1186,1183,1180,1177,1174,1171,1171,1168,1165,1165,1162,1159,1159,1156,1153,1153,1150,1147,1147,1144,1141,1141,1141,1141,1138,1135,1135,1132,1129,1126,1123,1120,1117,1117,1114,1111,1108,1105,1102,1099,1099,1096,1090,1087,1081,1078,1072,1069,1066,1060,1057,1054,1051,1045,1042,1039,1033,1030,1027,1024,1018,1015,1006,1000,994,985,979,976,970,964,958,955,949,943,940,934,928,922,919,913,907,901,895,889,883,880,874,868,862,856,853,847,844,838,835,829,823,820,814,808,802,799,793,787,784,778,772,769,763,757,754,748,742,736,733,727,721,715,709,703,697,694,688,685,679,676,670,664,658,655,649,643,640,634,628,625,619,613,610,604,598,595,589,583,580,574,568,562,559,553,547,544,538,535,529,526,520,520,517,514,514,511,505,499,496,490,484,481,475,469,463,460,454,448,445,445,445,445,445,448,448,445,445,445,445,445,445,445
2191,2188,2182,2179,2173,2170,2167,2164,2161,2161,2158,2155,2152,2152,2149,2146,2149,2149,2155,2158,2164,2170,2173,2179,2185,2191,2197,2203,2206,2212,2218,2230,2239,2251,2266,2278,2293,2305,2317,2323,2326,2326,2326,2323,2323,2320,2317,2311,2305,2299,2293,2287,2281,2275,2269,2263,2257,2251,2245,2239,2233,2227,2224,2218,2212,2206,2203,2197,2194,2188,2182,2179,2173,2170,2167,2164,2158,2155,2152,2149,2146,2143,2143,2140,2140,2140,2137,2137,2137,2137,2134,2134,2134,2131,2131,2131,2131,2131,2128,2122,2119,2116,2110,2107,2101,2095,2092,2086,2083,2077,2074,2068,2068,2065,2062,2059,2053,2047,2044,2041,2038,2032,2029,2026,2023,2020,2017,2011,2008,2005,2002,1999,1993,1990,1987,1984,1981,1978,1972,1969,1969,1969,1966,1966,1966,1966,1963,1963,1963,1963,1963,1963,1960,1960,1957,1954,1951,1948,1945,1942,1939,1936,1933,1930,1927,1924,1924,1921,1918,1915,1912,1912,1915,1915,1915,1915,1915,1915,1915,1915,1915,1918,1918,1918,1918,1918,1918,1918,1918,1918,1921,1921,1921,1921,1921,1921,1921,1921,1921,1924,1924,1924,1924,1924,1924,1924,1924,1924,1927,1927,1927,1930,1930,1930,1930,1927,1924,1921,1918,1915,1912,1909,1906,1900,1897,1894,1891,1888,1885,1879,1876,1873,1870,1864,1861,1855,1852,1849,1843,1840,1834,1831,1825,1822,1816,1813,1807,1804,1798,1795,1792,1792,1789,1786,1783,1777,1774,1771,1768,1765,1759,1756,1753,1750,1747,1744,1738,1735,1732,1729,1726,1723,1723,1720,1717,1717,1714,1711,1708,1708,1705,1702,1699,1696,1693,1690,1687,1684,1681,1678,1675,1672,1672,1669,1666,1660,1657,1657,1654,1651,1648,1648,1645,1642,1639,1636,1633,1630,1627,1624,1621,1618,1615,1612,1609,1606,1603,1600,1597,1594,1591,1588,1585,1582,1579,1579,1576,1573,1573,1570,1570,1567,1564,1561,1558,1558,1555,1552,1549,1546,1543,1540,1540,1537,1534,1531,1528,1525,1525,1522,1519,1516,1513,1510,1507,1504,1501,1498,1495,1492,1489,1486,1483,1480,1477,1474,1471,1468,1465,1462,1459,1456,1453,1447,1444,1441,1435,1432,1429,1426,1420,1417,1414,1408,1405,1402,1396,1390,1387,1381,1375,1372,1366,1363,1357,1351,1345,1339,1330,1324,1318,1315,1312,1306,1303,1300,1294,1291,1288,1285,1282,1279,1276,1276,1273,1273,1270,1270,1267,1267,1264,1264,1261,1261,1258,1258,1255,1252,1252,1249,1249,1246,1243,1243,1240,1240,1237,1237,1234,1231,1231,1228,1225,1219,1216,1210,1207,1204,1198,1195,1192,1189,1186,1180,1177,1174,1171,1171,1168,1168,1165,1162,1162,1159,1156,1156,1153,1150,1150,1147,1147,1144,1144,1144,1141,1141,1138,1135,1132,1129,1126,1123,1123,1120,1117,1114,1111,1108,1105,1105,1102,1099,1096,1093,1090,1084,1081,1075,1072,1069,1063,1060,1057,1051,1048,1045,1039,1036,1033,1030,1024,1021,1018,1015,1009,1003,994,988,982,976,970,964,961,955,949,943,940,934,928,925,919,913,907,904,898,892,886,880,874,868,862,856,853,847,844,838,835,829,823,820,814,808,805,799,793,790,784,778,775,769,763,757,754,748,742,736,733,727,721,715,709,703,697,694,688,685,679,676,670,664,661,655,649,643,640,634,628,625,619,613,610,604,598,595,589,583,580,574,568,562,559,553,547,544,538,535,529,523,520,520,517,514,514,508,505,499,493,487,484,478,472,466,463,457,451,448,445,445,445,445,448,448,448,445,445,445,445,445,445,445
2200,2197,2191,2185,2185,2182,2179,2176,2176,2173,2170,2167,2167,2164,2161,2158,2155,2155,2158,2164,2170,2176,2182,2188,2194,2200,2206,2209,2212,2218,2224,2233,2242,2254,2269,2281,2296,2305,2317,2326,2326,2326,2326,2323,2320,2320,2314,2308,2302,2296,2293,2287,2281,2275,2269,2263,2257,2251,2245,2239,2233,2227,2221,2215,2209,2203,2200,2194,2191,2185,2179,2176,2173,2170,2167,2164,2161,2155,2152,2149,2146,2143,2143,2143,2143,2140,2140,2140,2137,2137,2137,2137,2134,2134,2134,2131,2131,2131,2128,2122,2119,2113,2110,2104,2101,2095,2092,2086,2083,2077,2071,2071,2068,2065,2062,2059,2053,2050,2044,2041,2038,2035,2029,2026,2023,2020,2017,2011,2008,2005,2002,1999,1993,1990,1987,1984,1981,1978,1975,1969,1966,1963,1963,1963,1963,1963,1963,1963,1960,1960,1960,1960,1960,1957,1954,1951,1948,1945,1942,1939,1936,1933,1930,1927,1924,1921,1918,1915,1915,1912,1909,1909,1909,1909,1909,1909,1909,1909,1909,1909,1912,1912,1912,1912,1912,1912,1912,1912,1912,1915,1915,1915,1915,1915,1915,1915,1915,1915,1918,1918,1918,1918,1918,1918,1918,1918,1918,1921,1921,1921,1924,1924,1924,1927,1927,1924,1921,1921,1918,1915,1912,1909,1906,1900,1897,1894,1891,1888,1885,1879,1876,1873,1870,1864,1861,1855,1852,1849,1843,1840,1834,1831,1828,1822,1819,1813,1810,1804,1801,1798,1795,1792,1786,1783,1780,1777,1774,1771,1765,1762,1759,1756,1753,1750,1744,1741,1738,1735,1732,1726,1723,1720,1720,1717,1717,1714,1711,1711,1708,1705,1702,1699,1696,1693,1690,1687,1684,1681,1678,1675,1672,1669,1666,1663,1660,1657,1654,1651,1651,1648,1645,1642,1642,1639,1636,1633,1630,1627,1624,1621,1618,1615,1612,1609,1606,1603,1600,1597,1594,1591,1588,1585,1582,1579,1579,1576,1576,1573,1570,1570,1567,1564,1564,1561,1558,1555,1555,1552,1549,1546,1543,1540,1537,1537,1534,1531,1528,1525,1522,1519,1519,1516,1513,1510,1507,1504,1501,1498,1495,1492,1489,1486,1483,1480,1477,1474,1471,1468,1465,1462,1459,1456,1450,1447,1444,1438,1435,1432,1429,1423,1420,1417,1414,1408,1402,1399,1393,1390,1384,1378,1375,1369,1363,1360,1357,1351,1345,1336,1330,1324,1315,1309,1306,1303,1297,1294,1291,1285,1282,1279,1279,1276,1273,1270,1270,1267,1267,1264,1264,1261,1261,1258,1258,1255,1252,1252,1249,1249,1246,1246,1243,1240,1240,1237,1237,1234,1231,1231,1228,1228,1225,1222,1222,1219,1213,1210,1207,1201,1198,1195,1189,1186,1183,1180,1177,1174,1171,1171,1168,1165,1165,1162,1159,1159,1156,1153,1153,1150,1150,1147,1147,1147,1147,1144,1141,1138,1135,1132,1132,1129,1126,1123,1120,1117,1114,1111,1111,1108,1105,1102,1099,1096,1093,1090,1087,1081,1078,1075,1069,1066,1063,1057,1054,1051,1045,1042,1039,1036,1030,1027,1024,1021,1015,1012,1009,1003,997,988,982,976,970,964,961,955,949,946,940,934,928,925,919,913,910,904,898,892,886,880,874,871,865,859,853,850,844,841,835,829,826,820,814,811,805,799,796,790,784,778,775,769,763,760,754,748,742,736,730,724,718,712,709,703,697,694,688,685,679,676,670,664,661,655,649,643,640,634,628,625,619,613,610,604,598,595,589,583,580,574,568,562,559,553,547,544,538,532,529,523,523,520,517,514,511,508,502,496,490,487,481,475,472,466,460,457,451,448,445,445,445,448,448,448,448,445,445,445,445,445,445,445
2209,2203,2200,2200,2197,2194,2191,2191,2188,2185,2182,2182,2179,2176,2173,2170,2167,2161,2167,2173,2179,2185,2191,2197,2203,2206,2209,2215,2218,2224,2230,2239,2248,2260,2272,2284,2296,2308,2317,2326,2329,2326,2326,2323,2320,2320,2314,2308,2302,2296,2290,2284,2278,2272,2266,2260,2257,2251,2245,2239,2233,2227,2221,2215,2209,2203,2197,2191,2188,2182,2179,2176,2173,2170,2167,2164,2161,2155,2152,2149,2146,2146,2146,2143,2143,2143,2143,2140,2140,2140,2137,2137,2137,2134,2134,2134,2134,2131,2128,2122,2119,2113,2110,2104,2101,2095,2089,2086,2080,2077,2074,2071,2068,2065,2065,2062,2056,2050,2044,2041,2038,2035,2029,2026,2023,2020,2017,2011,2008,2005,2002,1999,1996,1990,1987,1984,1981,1978,1975,1969,1966,1966,1963,1963,1960,1960,1960,1960,1960,1960,1960,1957,1957,1954,1951,1948,1945,1942,1939,1936,1933,1930,1927,1924,1921,1918,1918,1915,1912,1909,1909,1906,1906,1903,1903,1903,1903,1903,1903,1906,1906,1906,1906,1906,1906,1906,1906,1906,1909,1909,1909,1909,1909,1909,1909,1909,1909,1912,1912,1912,1912,1912,1912,1912,1912,1915,1915,1915,1915,1915,1918,1918,1921,1921,1924,1921,1921,1918,1915,1915,1912,1909,1903,1900,1897,1894,1891,1888,1882,1879,1876,1873,1867,1864,1861,1855,1852,1846,1843,1840,1834,1831,1825,1822,1819,1813,1810,1804,1801,1798,1792,1789,1786,1783,1780,1777,1771,1768,1765,1762,1759,1756,1750,1747,1744,1741,1738,1732,1729,1726,1723,1720,1717,1714,1714,1711,1711,1708,1705,1702,1699,1696,1693,1690,1687,1684,1681,1678,1675,1672,1669,1666,1663,1660,1657,1654,1651,1648,1648,1645,1642,1639,1636,1636,1633,1630,1627,1624,1621,1618,1615,1612,1609,1606,1603,1600,1597,1594,1591,1588,1585,1582,1582,1579,1576,1576,1573,1570,1570,1567,1564,1564,1561,1561,1558,1555,1552,1549,1549,1546,1543,1540,1537,1534,1534,1531,1528,1525,1522,1519,1516,1516,1513,1510,1507,1504,1501,1498,1495,1492,1489,1486,1483,1480,1477,1474,1471,1468,1465,1462,1459,1453,1450,1447,1441,1438,1435,1432,1426,1423,1420,1417,1411,1405,1402,1396,1393,1387,1381,1378,1372,1366,1363,1360,1354,1348,1342,1336,1330,1321,1315,1309,1303,1297,1294,1288,1285,1282,1279,1276,1273,1270,1270,1267,1264,1264,1261,1261,1258,1258,1255,1252,1252,1249,1249,1246,1246,1243,1240,1240,1237,1237,1234,1231,1231,1228,1228,1225,1225,1222,1219,1219,1216,1216,1213,1210,1204,1201,1195,1192,1189,1186,1180,1177,1174,1171,1171,1168,1165,1165,1162,1159,1159,1156,1153,1153,1153,1153,1150,1150,1150,1147,1144,1141,1138,1138,1135,1132,1129,1126,1123,1120,1120,1117,1114,1111,1108,1105,1102,1099,1099,1096,1093,1087,1084,1081,1075,1072,1069,1066,1060,1057,1054,1048,1045,1042,1036,1033,1030,1024,1021,1018,1015,1009,1006,1003,997,991,982,976,970,967,961,955,949,946,940,934,931,925,919,913,910,904,898,892,889,883,877,871,865,859,853,850,844,841,835,832,826,820,814,811,805,799,796,790,784,781,775,769,763,757,751,748,742,736,730,724,718,712,706,700,697,691,688,685,679,676,670,664,661,655,649,646,640,634,628,625,619,613,610,604,598,595,589,583,580,574,568,562,559,553,547,541,538,532,529,523,523,520,517,514,511,505,499,496,490,484,478,475,469,466,460,457,451,448,445,445,448,448,448,448,448,445,445,445,445,445,445,445
2218,2215,2215,2212,2209,2206,2206,2203,2200,2197,2194,2191,2185,2182,2176,2173,2170,2170,2176,2182,2188,2194,2200,2203,2209,2212,2215,2218,2224,2230,2236,2245,2257,2269,2281,2290,2299,2308,2320,2329,2329,2326,2326,2323,2320,2317,2311,2305,2302,2296,2290,2284,2278,2272,2266,2260,2254,2248,2242,2236,2230,2224,2218,2212,2206,2200,2194,2191,2185,2182,2179,2176,2173,2170,2167,2164,2161,2155,2152,2149,2149,2146,2146,2146,2146,2143,2143,2143,2140,2140,2140,2140,2137,2137,2137,2134,2134,2131,2128,2122,2116,2113,2107,2104,2098,2095,2089,2086,2080,2077,2074,2071,2068,2068,2065,2062,2056,2050,2044,2041,2038,2035,2029,2026,2023,2020,2017,2011,2008,2005,2002,1999,1996,1990,1987,1984,1981,1978,1975,1972,1969,1966,1963,1963,1960,1960,1960,1957,1957,1957,1957,1957,1954,1951,1948,1945,1942,1939,1936,1933,1930,1927,1924,1924,1921,1918,1915,1915,1912,1909,1906,1906,1903,1903,1903,1900,1900,1900,1900,1900,1900,1900,1900,1900,1900,1900,1900,1903,1903,1903,1903,1903,1903,1903,1903,1906,1906,1906,1906,1906,1906,1906,1906,1906,1909,1909,1909,1909,1909,1912,1912,1915,1915,1915,1918,1918,1918,1915,1912,1912,1909,1906,1903,1900,1897,1894,1891,1888,1882,1879,1876,1873,1867,1864,1858,1855,1852,1846,1843,1837,1834,1831,1825,1822,1816,1810,1807,1801,1798,1795,1792,1789,1786,1783,1777,1774,1771,1768,1765,1762,1756,1753,1750,1747,1744,1738,1735,1732,1729,1726,1723,1717,1714,1714,1711,1711,1708,1705,1702,1699,1696,1693,1690,1687,1684,1681,1678,1675,1672,1669,1666,1663,1660,1657,1654,1651,1648,1645,1642,1642,1639,1636,1633,1633,1630,1627,1624,1621,1618,1615,1612,1609,1606,1603,1600,1597,1594,1591,1588,1585,1582,1582,1579,1576,1576,1573,1570,1570,1567,1567,1564,1561,1561,1558,1555,1555,1552,1549,1546,1546,1543,1540,1537,1534,1531,1528,1528,1525,1522,1519,1516,1513,1510,1510,1507,1504,1501,1498,1495,1492,1489,1486,1483,1480,1477,1474,1471,1468,1465,1459,1456,1453,1450,1444,1441,1438,1435,1429,1426,1423,1420,1414,1408,1405,1399,1396,1390,1384,1381,1375,1369,1366,1360,1357,1354,1348,1342,1336,1327,1321,1315,1309,1300,1294,1288,1285,1279,1276,1273,1273,1270,1267,1264,1264,1261,1258,1258,1255,1255,1252,1249,1249,1246,1246,1243,1240,1240,1237,1237,1234,1234,1231,1228,1228,1225,1225,1222,1219,1219,1216,1216,1213,1210,1210,1207,1207,1204,1198,1195,1189,1186,1183,1180,1177,1171,1171,1168,1168,1165,1162,1162,1159,1156,1156,1156,1156,1156,1153,1153,1150,1147,1147,1144,1141,1138,1135,1132,1129,1126,1126,1123,1120,1117,1114,1111,1108,1108,1105,1102,1099,1096,1093,1090,1087,1081,1078,1075,1069,1066,1063,1060,1054,1051,1048,1042,1039,1036,1030,1027,1024,1021,1015,1012,1009,1006,1000,997,991,985,979,973,967,961,955,952,946,940,934,931,925,919,916,910,904,898,895,889,883,877,871,865,862,856,850,847,841,835,832,826,820,817,811,805,802,796,790,787,781,775,769,763,757,751,745,739,733,730,724,718,712,706,700,697,691,688,685,679,676,670,664,661,655,649,646,640,634,628,625,619,613,610,604,598,595,589,583,580,574,568,562,559,553,547,541,538,532,529,523,523,520,517,514,508,502,499,493,487,481,478,472,469,463,460,454,451,445,445,448,448,448,448,448,448,445,445,445,445,445,445,445
2230,2230,2227,2224,2221,2218,2215,2209,2206,2203,2197,2194,2188,2185,2179,2176,2176,2179,2185,2191,2197,2200,2206,2212,2215,2218,2221,2224,2227,2236,2242,2254,2266,2275,2284,2293,2302,2311,2320,2329,2329,2326,2323,2323,2320,2317,2311,2305,2299,2293,2287,2284,2278,2272,2266,2260,2254,2248,2242,2236,2230,2224,2218,2212,2206,2200,2194,2191,2185,2182,2179,2176,2173,2170,2167,2164,2161,2155,2152,2152,2149,2149,2149,2146,2146,2146,2146,2143,2143,2143,2140,2140,2140,2140,2137,2137,2134,2131,2125,2122,2116,2113,2107,2104,2098,2095,2089,2083,2080,2077,2074,2071,2071,2068,2065,2062,2056,2053,2047,2041,2038,2035,2029,2026,2023,2020,2017,2011,2008,2005,2002,1999,1996,1993,1987,1984,1981,1978,1975,1972,1969,1966,1966,1963,1960,1960,1957,1957,1957,1957,1954,1954,1951,1948,1945,1942,1939,1936,1933,1930,1930,1927,1924,1921,1921,1918,1915,1912,1912,1909,1906,1903,1903,1900,1900,1900,1897,1897,1897,1897,1894,1894,1894,1894,1894,1894,1897,1897,1897,1897,1897,1897,1897,1897,1900,1900,1900,1900,1900,1900,1900,1900,1900,1903,1903,1903,1903,1903,1906,1906,1906,1909,1909,1912,1912,1912,1915,1912,1912,1909,1906,1903,1903,1900,1897,1894,1891,1888,1882,1879,1876,1870,1867,1864,1858,1855,1849,1846,1840,1837,1831,1828,1822,1819,1813,1810,1804,1801,1795,1792,1789,1786,1783,1780,1777,1774,1771,1765,1762,1759,1756,1753,1750,1744,1741,1738,1735,1732,1729,1723,1720,1717,1714,1711,1708,1708,1705,1702,1699,1696,1693,1690,1687,1684,1681,1678,1675,1672,1669,1666,1663,1660,1657,1654,1651,1648,1645,1642,1639,1636,1636,1633,1630,1627,1627,1624,1621,1618,1618,1615,1612,1609,1606,1603,1600,1597,1594,1591,1588,1585,1582,1579,1576,1576,1573,1573,1570,1567,1567,1564,1561,1561,1558,1555,1555,1552,1549,1549,1546,1543,1540,1540,1537,1534,1531,1528,1525,1525,1522,1519,1516,1513,1510,1507,1504,1504,1501,1498,1495,1492,1489,1486,1483,1480,1477,1474,1468,1465,1462,1459,1456,1453,1447,1444,1441,1438,1432,1429,1426,1423,1417,1411,1408,1402,1396,1393,1387,1384,1378,1372,1369,1363,1357,1354,1351,1345,1339,1333,1327,1321,1315,1306,1300,1294,1285,1279,1276,1273,1270,1267,1267,1264,1261,1261,1261,1258,1258,1255,1252,1246,1246,1243,1243,1240,1237,1237,1234,1234,1231,1228,1228,1225,1225,1222,1219,1219,1216,1216,1213,1213,1210,1207,1207,1204,1204,1201,1198,1198,1192,1189,1183,1180,1177,1174,1171,1171,1168,1165,1165,1162,1159,1159,1159,1159,1159,1159,1156,1153,1153,1150,1147,1144,1141,1138,1135,1135,1132,1129,1126,1123,1120,1117,1114,1114,1111,1108,1105,1102,1099,1096,1096,1090,1087,1084,1081,1075,1072,1069,1066,1060,1057,1054,1048,1045,1042,1039,1033,1030,1027,1021,1018,1015,1012,1006,1003,1000,997,991,985,979,973,967,961,958,952,946,940,937,931,925,919,916,910,904,901,895,889,883,880,874,868,862,856,850,847,841,838,832,826,823,817,811,808,802,796,790,784,778,772,766,763,757,751,745,739,733,727,721,715,709,706,700,697,691,688,682,679,676,670,664,661,655,649,646,640,634,631,625,619,613,610,604,598,592,589,583,577,574,568,562,559,553,547,541,538,532,529,526,523,520,517,511,505,502,496,490,487,481,478,472,469,463,460,454,451,445,448,448,448,448,448,448,448,445,445,445,445,445,445,445
2242,2239,2233,2230,2227,2221,2218,2212,2209,2203,2200,2197,2191,2188,2182,2182,2185,2188,2194,2197,2203,2209,2215,2218,2221,2224,2227,2230,2233,2242,2251,2263,2272,2281,2290,2299,2308,2317,2323,2326,2329,2326,2323,2320,2320,2314,2308,2305,2299,2293,2287,2281,2275,2269,2263,2257,2251,2245,2239,2233,2227,2224,2218,2212,2206,2200,2194,2191,2185,2182,2179,2176,2173,2170,2167,2164,2161,2155,2152,2152,2152,2152,2149,2149,2149,2146,2146,2146,2143,2143,2143,2143,2140,2140,2137,2134,2131,2128,2125,2122,2116,2113,2107,2101,2098,2092,2089,2083,2080,2077,2074,2074,2071,2068,2068,2065,2059,2053,2047,2041,2038,2035,2029,2026,2023,2020,2017,2014,2008,2005,2002,1999,1996,1993,1987,1984,1981,1978,1975,1972,1969,1969,1966,1963,1963,1960,1957,1957,1954,1954,1954,1951,1948,1945,1942,1939,1936,1936,1933,1930,1927,1927,1924,1921,1918,1918,1915,1912,1909,1909,1906,1903,1900,1900,1897,1897,1897,1897,1894,1894,1894,1891,1891,1891,1891,1891,1891,1891,1891,1891,1891,1891,1891,1894,1894,1894,1894,1894,1894,1894,1894,1894,1897,1897,1897,1897,1897,1897,1900,1900,1903,1903,1906,1906,1906,1909,1909,1909,1909,1906,1903,1903,1900,1897,1897,1894,1891,1885,1882,1879,1876,1870,1867,1861,1858,1852,1849,1843,1840,1834,1831,1825,1822,1816,1813,1807,1801,1798,1795,1792,1789,1786,1780,1777,1774,1771,1768,1765,1762,1759,1756,1750,1747,1744,1741,1738,1735,1729,1726,1723,1720,1717,1711,1708,1708,1705,1702,1702,1696,1693,1690,1687,1684,1681,1678,1675,1672,1669,1666,1663,1660,1657,1654,1651,1645,1642,1642,1639,1636,1633,1633,1630,1627,1624,1621,1621,1618,1615,1612,1612,1609,1606,1603,1600,1597,1594,1591,1588,1585,1582,1579,1579,1576,1573,1573,1570,1567,1567,1564,1561,1561,1558,1555,1555,1552,1552,1549,1546,1546,1543,1540,1537,1537,1534,1531,1528,1525,1522,1519,1519,1516,1513,1510,1507,1504,1501,1498,1495,1492,1489,1486,1483,1480,1477,1474,1471,1468,1465,1462,1459,1456,1450,1447,1444,1441,1435,1432,1429,1426,1420,1414,1411,1405,1399,1396,1390,1387,1381,1375,1372,1366,1360,1357,1351,1348,1345,1339,1333,1327,1321,1312,1306,1300,1294,1285,1279,1273,1270,1270,1267,1267,1264,1264,1261,1261,1261,1258,1255,1249,1246,1243,1240,1237,1234,1234,1231,1231,1228,1225,1225,1222,1222,1219,1216,1216,1213,1213,1210,1207,1207,1204,1204,1201,1198,1198,1195,1195,1192,1192,1186,1183,1180,1174,1171,1171,1168,1165,1165,1165,1162,1162,1162,1162,1162,1159,1159,1156,1153,1150,1147,1144,1141,1141,1138,1135,1132,1129,1126,1123,1123,1120,1117,1114,1111,1108,1105,1105,1102,1099,1096,1093,1090,1084,1081,1078,1075,1069,1066,1063,1060,1054,1051,1048,1045,1039,1036,1033,1027,1024,1021,1018,1012,1009,1006,1003,997,994,991,985,982,973,967,961,958,952,946,943,937,931,925,922,916,910,904,901,895,889,883,880,874,868,862,856,853,847,841,838,832,826,823,817,811,805,802,796,790,784,778,772,766,760,754,748,745,739,733,727,721,715,709,703,700,697,691,688,682,679,676,670,667,661,655,649,646,640,634,631,625,619,613,610,604,598,595,589,583,577,574,568,562,559,553,547,544,538,532,529,526,523,520,514,511,505,499,493,490,484,481,478,472,469,463,460,454,451,448,448,448,448,448,448,448,448,445,445,445,445,445,445,445
2245,2242,2236,2233,2227,2224,2221,2215,2212,2206,2203,2200,2194,2191,2185,2188,2191,2194,2200,2206,2212,2215,2221,2224,2227,2230,2233,2236,2239,2248,2257,2266,2275,2284,2293,2299,2305,2311,2314,2317,2320,2323,2323,2320,2320,2314,2308,2302,2296,2290,2287,2281,2275,2269,2263,2257,2251,2245,2239,2233,2227,2221,2215,2209,2206,2200,2194,2191,2185,2182,2179,2176,2173,2170,2167,2164,2161,2155,2155,2155,2152,2152,2152,2149,2149,2149,2149,2146,2146,2146,2143,2143,2143,2140,2137,2134,2131,2128,2125,2119,2116,2110,2107,2101,2098,2092,2089,2083,2080,2077,2077,2074,2071,2071,2068,2065,2059,2053,2047,2041,2038,2035,2032,2026,2023,2020,2017,2014,2008,2005,2002,1999,1996,1993,1987,1984,1981,1978,1975,1972,1972,1969,1966,1966,1963,1960,1960,1957,1954,1954,1951,1948,1945,1942,1942,1939,1936,1933,1933,1930,1927,1924,1924,1921,1918,1915,1915,1912,1909,1906,1903,1903,1900,1897,1897,1894,1894,1894,1894,1891,1891,1891,1888,1888,1888,1888,1885,1885,1885,1885,1885,1885,1888,1888,1888,1888,1888,1888,1888,1888,1888,1891,1891,1891,1891,1891,1891,1894,1894,1897,1897,1897,1900,1900,1903,1903,1903,1906,1906,1903,1900,1900,1897,1894,1894,1891,1888,1885,1882,1879,1873,1870,1864,1861,1855,1852,1846,1843,1837,1834,1828,1822,1819,1813,1810,1804,1801,1795,1792,1789,1786,1783,1780,1777,1774,1771,1765,1762,1759,1756,1753,1750,1747,1744,1738,1735,1732,1729,1726,1723,1717,1714,1711,1708,1705,1702,1702,1699,1696,1693,1687,1684,1681,1678,1675,1672,1669,1666,1663,1660,1657,1654,1651,1645,1642,1639,1636,1636,1633,1630,1627,1627,1624,1621,1618,1618,1615,1612,1609,1606,1606,1603,1600,1597,1594,1591,1588,1585,1582,1579,1579,1576,1573,1573,1570,1567,1567,1564,1561,1561,1558,1558,1555,1552,1552,1549,1546,1546,1543,1540,1540,1537,1534,1531,1531,1528,1525,1522,1519,1516,1516,1513,1510,1507,1504,1501,1498,1495,1492,1489,1486,1483,1480,1477,1474,1471,1468,1465,1462,1459,1456,1450,1447,1444,1438,1435,1432,1429,1423,1417,1414,1408,1402,1399,1393,1390,1384,1378,1375,1369,1363,1360,1354,1351,1345,1342,1339,1330,1324,1318,1312,1306,1300,1291,1285,1279,1273,1273,1270,1270,1267,1267,1264,1264,1261,1261,1258,1252,1249,1246,1240,1237,1234,1231,1228,1228,1225,1225,1222,1219,1219,1216,1213,1213,1210,1210,1207,1204,1204,1201,1201,1198,1195,1195,1192,1192,1189,1186,1186,1183,1180,1177,1174,1171,1168,1168,1168,1168,1165,1165,1165,1165,1165,1162,1159,1156,1153,1150,1150,1147,1144,1141,1138,1135,1132,1132,1129,1126,1123,1120,1117,1114,1111,1111,1108,1105,1102,1099,1096,1093,1090,1087,1084,1081,1075,1072,1069,1066,1060,1057,1054,1051,1045,1042,1039,1033,1030,1027,1024,1018,1015,1012,1006,1003,1000,997,991,988,985,982,976,967,964,958,952,946,943,937,931,925,922,916,910,907,901,895,889,886,880,874,868,865,859,853,847,844,838,832,829,823,817,811,805,799,793,787,784,778,772,766,760,754,748,742,736,730,727,721,715,709,703,700,697,691,688,682,679,676,670,667,661,655,649,646,640,634,631,625,619,613,610,604,598,595,589,583,577,574,568,562,559,553,547,544,538,532,529,526,523,517,514,508,502,499,493,490,484,481,475,472,466,463,457,454,448,448,448,448,448,448,448,448,448,445,445,445,445,445,445,445
2248,2245,2239,2236,2230,2227,2224,2218,2215,2209,2206,2200,2197,2194,2194,2197,2200,2203,2209,2215,2218,2221,2227,2230,2233,2236,2239,2242,2245,2254,2263,2269,2275,2281,2287,2293,2299,2305,2308,2308,2311,2314,2317,2320,2317,2314,2308,2302,2296,2290,2284,2278,2272,2266,2260,2257,2251,2245,2239,2233,2227,2221,2215,2209,2203,2200,2194,2191,2188,2182,2179,2176,2173,2170,2167,2164,2161,2158,2155,2155,2155,2155,2152,2152,2152,2149,2149,2149,2149,2146,2146,2143,2143,2140,2137,2134,2131,2128,2125,2119,2116,2110,2107,2101,2095,2092,2086,2083,2080,2080,2077,2074,2074,2071,2068,2065,2062,2056,2050,2044,2038,2035,2032,2026,2023,2020,2017,2014,2008,2005,2002,1999,1996,1993,1990,1984,1981,1978,1975,1975,1972,1972,1969,1966,1966,1963,1960,1960,1957,1954,1951,1948,1945,1942,1939,1939,1936,1933,1930,1930,1927,1924,1921,1921,1918,1915,1912,1909,1909,1906,1903,1900,1900,1897,1894,1894,1894,1891,1891,1891,1888,1888,1888,1888,1885,1885,1885,1882,1882,1882,1882,1882,1882,1882,1882,1882,1882,1882,1882,1882,1885,1885,1885,1885,1885,1885,1888,1888,1888,1891,1891,1894,1894,1894,1897,1897,1900,1900,1903,1900,1900,1897,1894,1894,1891,1888,1885,1885,1882,1876,1873,1867,1861,1858,1852,1849,1843,1840,1834,1831,1825,1822,1816,1813,1807,1804,1798,1795,1792,1789,1786,1780,1777,1774,1771,1768,1765,1762,1759,1756,1750,1747,1744,1741,1738,1735,1732,1729,1723,1720,1717,1714,1711,1705,1702,1699,1699,1696,1693,1690,1687,1681,1678,1675,1672,1669,1666,1663,1660,1657,1654,1651,1645,1642,1639,1636,1633,1633,1630,1627,1624,1621,1621,1618,1615,1612,1612,1609,1606,1603,1603,1600,1597,1594,1591,1588,1585,1582,1579,1579,1576,1573,1573,1570,1567,1567,1564,1564,1561,1558,1558,1555,1552,1552,1549,1546,1546,1543,1540,1540,1537,1537,1534,1531,1528,1528,1525,1522,1519,1516,1513,1510,1510,1507,1504,1501,1498,1495,1492,1489,1486,1483,1480,1477,1474,1471,1468,1465,1462,1456,1453,1450,1447,1441,1438,1435,1432,1426,1420,1417,1411,1405,1402,1396,1393,1387,1381,1378,1372,1366,1363,1357,1351,1348,1345,1342,1336,1330,1324,1318,1312,1306,1297,1291,1285,1279,1273,1273,1273,1270,1270,1267,1267,1264,1264,1261,1255,1252,1249,1243,1240,1237,1231,1228,1225,1222,1222,1219,1219,1216,1213,1213,1210,1207,1207,1204,1204,1201,1198,1198,1195,1192,1192,1189,1189,1186,1183,1183,1180,1180,1177,1174,1171,1171,1171,1171,1168,1168,1168,1168,1168,1165,1162,1159,1156,1156,1153,1150,1147,1144,1141,1138,1138,1135,1132,1129,1126,1123,1120,1117,1117,1114,1111,1108,1105,1102,1099,1096,1093,1090,1087,1084,1081,1078,1072,1069,1066,1063,1060,1054,1051,1048,1045,1039,1036,1033,1030,1024,1021,1018,1012,1009,1006,1003,997,994,991,988,982,979,976,970,964,958,952,949,943,937,931,928,922,916,910,907,901,895,892,886,880,874,871,865,859,853,850,844,838,832,826,820,817,811,805,799,793,787,781,775,769,763,760,754,748,742,736,730,724,718,712,709,703,700,697,691,688,682,679,673,670,667,661,655,652,646,640,634,631,625,619,616,610,604,598,595,589,583,580,574,568,562,559,553,547,544,538,532,529,526,520,517,511,505,502,499,493,490,484,481,475,472,466,463,457,454,448,448,448,448,448,448,448,448,448,445,445,445,445,445,445,445
2251,2248,2242,2239,2233,2230,2227,2221,2218,2212,2209,2203,2200,2200,2203,2206,2209,2212,2218,2221,2224,2227,2230,2236,2239,2239,2242,2245,2245,2251,2257,2263,2269,2275,2281,2287,2293,2296,2299,2302,2302,2305,2308,2311,2314,2311,2305,2299,2296,2290,2284,2278,2272,2266,2260,2254,2248,2242,2236,2230,2224,2221,2215,2209,2203,2200,2194,2191,2188,2182,2179,2176,2173,2170,2167,2164,2161,2158,2158,2158,2155,2155,2155,2152,2152,2152,2152,2149,2149,2146,2146,2143,2143,2140,2137,2134,2131,2128,2122,2119,2113,2110,2104,2101,2095,2092,2086,2083,2083,2080,2077,2077,2074,2071,2068,2068,2062,2056,2050,2044,2038,2035,2032,2026,2023,2020,2017,2014,2008,2005,2002,1999,1996,1993,1990,1984,1981,1981,1978,1975,1975,1972,1969,1969,1966,1966,1963,1963,1960,1954,1951,1945,1945,1942,1939,1936,1936,1933,1930,1927,1927,1924,1921,1918,1915,1915,1912,1909,1906,1906,1903,1900,1897,1897,1894,1891,1891,1891,1888,1888,1888,1888,1885,1885,1885,1882,1882,1882,1882,1879,1879,1879,1876,1876,1876,1876,1876,1876,1876,1879,1879,1879,1879,1879,1879,1879,1882,1882,1885,1885,1885,1888,1888,1891,1891,1894,1894,1894,1897,1897,1897,1894,1891,1891,1888,1885,1885,1882,1879,1873,1870,1864,1861,1855,1852,1846,1843,1837,1834,1828,1825,1819,1813,1810,1804,1801,1795,1792,1789,1786,1783,1780,1777,1774,1768,1765,1762,1759,1756,1753,1750,1747,1744,1738,1735,1732,1729,1726,1723,1720,1717,1711,1708,1705,1702,1699,1696,1693,1690,1687,1684,1681,1675,1672,1669,1666,1663,1660,1657,1654,1651,1645,1642,1639,1636,1633,1630,1627,1627,1624,1621,1618,1618,1615,1612,1609,1606,1606,1603,1600,1597,1597,1594,1591,1588,1588,1585,1582,1579,1576,1573,1573,1570,1570,1567,1564,1564,1561,1558,1558,1555,1552,1552,1549,1549,1546,1543,1543,1540,1537,1537,1534,1531,1531,1528,1525,1522,1522,1519,1516,1513,1510,1507,1507,1504,1501,1498,1495,1492,1489,1486,1483,1480,1477,1474,1471,1465,1462,1459,1456,1453,1450,1444,1441,1438,1435,1429,1423,1420,1414,1408,1405,1399,1393,1390,1384,1381,1375,1369,1366,1360,1354,1351,1345,1342,1339,1336,1330,1324,1318,1309,1303,1297,1291,1282,1279,1276,1273,1273,1273,1270,1270,1267,1267,1264,1258,1255,1252,1246,1243,1240,1234,1231,1228,1222,1219,1216,1216,1213,1210,1210,1207,1207,1204,1201,1201,1198,1195,1195,1192,1192,1189,1186,1186,1183,1183,1180,1177,1177,1174,1171,1171,1171,1171,1174,1171,1171,1171,1171,1168,1165,1165,1162,1159,1156,1153,1150,1147,1147,1144,1141,1138,1135,1132,1129,1126,1123,1120,1120,1117,1114,1111,1108,1105,1102,1099,1096,1093,1093,1087,1084,1081,1078,1075,1069,1066,1063,1060,1057,1051,1048,1045,1042,1039,1033,1030,1027,1024,1018,1015,1012,1009,1003,1000,997,994,988,985,982,976,973,970,964,958,952,949,943,937,934,928,922,916,913,907,901,895,892,886,880,874,871,865,859,853,850,844,838,832,826,820,814,808,802,799,793,787,781,775,769,763,757,751,745,742,736,730,724,718,712,709,703,700,694,691,688,682,679,673,670,667,661,655,652,646,640,634,631,625,619,616,610,604,598,595,589,583,580,574,568,562,559,553,547,541,538,532,529,523,520,514,511,505,502,496,493,487,484,481,475,472,466,463,457,454,448,448,448,448,448,448,448,448,448,445,445,445,445,445,445,445
2254,2251,2245,2242,2236,2233,2227,2224,2221,2215,2212,2206,2206,2209,2209,2212,2215,2221,2224,2227,2227,2233,2233,2236,2236,2236,2239,2239,2239,2245,2251,2257,2263,2269,2275,2281,2284,2287,2290,2293,2296,2296,2299,2302,2305,2308,2302,2299,2293,2287,2281,2275,2272,2266,2260,2254,2248,2242,2236,2230,2224,2218,2215,2209,2203,2200,2194,2191,2188,2182,2179,2176,2173,2170,2167,2164,2161,2161,2158,2158,2158,2158,2155,2155,2155,2152,2152,2152,2149,2149,2146,2143,2140,2137,2134,2131,2128,2125,2122,2119,2113,2110,2104,2101,2095,2089,2086,2086,2083,2080,2080,2077,2074,2071,2071,2068,2062,2056,2050,2044,2041,2035,2032,2026,2023,2020,2017,2014,2008,2005,2002,1999,1996,1993,1990,1987,1984,1981,1981,1978,1975,1975,1972,1969,1969,1966,1966,1963,1960,1954,1951,1945,1942,1942,1939,1936,1933,1933,1930,1927,1924,1921,1921,1918,1915,1912,1912,1909,1906,1903,1903,1900,1897,1894,1894,1891,1888,1888,1888,1885,1885,1885,1885,1882,1882,1882,1882,1879,1879,1879,1876,1876,1876,1876,1873,1873,1873,1870,1873,1873,1873,1873,1873,1873,1873,1876,1876,1876,1879,1879,1882,1882,1885,1885,1885,1888,1888,1891,1891,1894,1894,1891,1891,1888,1885,1882,1882,1879,1876,1873,1867,1864,1858,1855,1849,1843,1840,1834,1831,1825,1822,1816,1813,1807,1804,1798,1795,1792,1789,1783,1780,1777,1774,1771,1768,1765,1762,1759,1753,1750,1747,1744,1741,1738,1735,1732,1729,1723,1720,1717,1714,1711,1708,1705,1699,1696,1693,1693,1687,1684,1681,1678,1675,1672,1666,1663,1660,1657,1654,1651,1648,1642,1639,1636,1633,1630,1627,1624,1621,1621,1618,1615,1612,1612,1609,1606,1603,1603,1600,1597,1594,1591,1591,1588,1585,1582,1582,1579,1576,1576,1573,1570,1570,1567,1564,1564,1561,1558,1558,1555,1555,1552,1549,1549,1546,1543,1543,1540,1537,1537,1534,1531,1531,1528,1528,1525,1522,1519,1519,1516,1513,1510,1507,1504,1501,1501,1498,1495,1492,1489,1486,1483,1480,1474,1471,1468,1465,1462,1459,1456,1453,1447,1444,1441,1438,1432,1426,1423,1417,1411,1408,1402,1396,1393,1387,1384,1378,1372,1369,1363,1357,1354,1348,1342,1339,1336,1333,1327,1321,1315,1309,1303,1297,1288,1282,1279,1276,1276,1273,1273,1273,1270,1270,1267,1261,1258,1255,1249,1246,1243,1237,1234,1231,1225,1222,1219,1213,1210,1210,1207,1204,1204,1201,1201,1198,1195,1195,1192,1189,1189,1186,1186,1183,1180,1180,1177,1174,1174,1171,1171,1168,1165,1168,1171,1171,1174,1174,1171,1171,1168,1165,1162,1159,1156,1153,1150,1150,1147,1144,1141,1138,1135,1132,1129,1126,1123,1123,1120,1117,1114,1111,1108,1105,1102,1099,1099,1096,1093,1090,1084,1081,1078,1075,1072,1069,1063,1060,1057,1054,1051,1045,1042,1039,1036,1033,1027,1024,1021,1018,1015,1009,1006,1003,1000,994,991,988,982,979,976,973,967,964,958,955,949,943,937,934,928,922,916,910,907,901,895,889,883,880,874,868,862,856,853,850,844,838,832,826,820,814,808,802,796,793,787,781,775,769,763,757,751,745,739,736,730,724,718,712,709,703,700,694,691,688,682,679,673,670,664,661,655,652,646,640,637,631,625,619,616,610,604,601,595,589,583,580,574,568,562,559,553,547,544,538,532,529,523,520,514,511,505,502,496,493,487,484,478,475,469,466,460,457,451,448,448,448,448,448,448,448,448,448,445,445,445,445,445,445,445
2254,2251,2248,2245,2239,2236,2230,2227,2224,2218,2215,2209,2212,2215,2218,2221,2221,2221,2224,2224,2227,2227,2227,2227,2230,2230,2230,2230,2233,2239,2245,2251,2257,2263,2269,2275,2275,2278,2281,2284,2287,2287,2290,2296,2299,2302,2299,2296,2290,2287,2281,2275,2269,2263,2257,2251,2245,2239,2236,2230,2224,2218,2212,2209,2203,2200,2194,2191,2188,2182,2179,2176,2173,2170,2167,2164,2164,2161,2161,2161,2158,2158,2158,2158,2155,2155,2152,2152,2149,2149,2146,2143,2140,2137,2134,2131,2128,2125,2122,2116,2113,2107,2104,2098,2095,2089,2089,2086,2083,2083,2080,2077,2074,2074,2071,2068,2065,2059,2053,2047,2041,2035,2032,2026,2023,2020,2017,2014,2011,2005,2002,1999,1996,1993,1990,1987,1984,1984,1981,1978,1978,1975,1975,1972,1972,1969,1969,1966,1960,1957,1951,1945,1942,1939,1939,1936,1933,1930,1930,1927,1924,1921,1918,1918,1915,1912,1909,1909,1906,1903,1900,1900,1897,1894,1891,1888,1888,1885,1885,1885,1885,1882,1882,1882,1879,1879,1879,1879,1876,1876,1876,1873,1873,1873,1873,1870,1870,1870,1867,1867,1867,1867,1867,1867,1867,1870,1870,1873,1873,1876,1876,1876,1879,1879,1882,1882,1885,1885,1885,1888,1888,1888,1888,1885,1882,1882,1879,1876,1873,1870,1864,1861,1855,1852,1846,1843,1837,1834,1828,1825,1819,1816,1810,1804,1801,1795,1792,1789,1786,1783,1780,1777,1774,1768,1765,1762,1759,1756,1753,1750,1747,1744,1738,1735,1732,1729,1726,1723,1720,1717,1711,1708,1705,1702,1699,1696,1693,1690,1687,1681,1678,1675,1672,1669,1666,1660,1657,1654,1651,1648,1642,1639,1636,1630,1627,1627,1624,1621,1618,1618,1615,1612,1609,1606,1606,1603,1600,1597,1597,1594,1591,1588,1585,1585,1582,1579,1576,1573,1570,1570,1570,1567,1567,1564,1564,1561,1561,1558,1555,1555,1552,1549,1549,1546,1543,1543,1540,1537,1537,1534,1534,1531,1528,1528,1525,1522,1522,1519,1516,1513,1513,1510,1507,1504,1501,1498,1495,1492,1489,1486,1486,1480,1477,1474,1471,1468,1465,1462,1459,1456,1450,1447,1444,1441,1435,1429,1426,1420,1414,1411,1405,1399,1396,1390,1387,1381,1375,1372,1366,1360,1357,1351,1345,1342,1336,1333,1330,1327,1321,1315,1309,1303,1294,1288,1285,1279,1279,1276,1276,1273,1273,1273,1267,1264,1261,1258,1252,1249,1246,1240,1237,1234,1228,1225,1222,1216,1213,1210,1204,1204,1201,1198,1198,1195,1192,1192,1189,1189,1186,1183,1183,1180,1177,1177,1174,1174,1171,1168,1168,1165,1162,1165,1165,1168,1171,1171,1171,1171,1168,1165,1162,1159,1156,1153,1153,1150,1147,1144,1141,1138,1135,1132,1129,1129,1126,1123,1120,1117,1114,1111,1108,1105,1102,1102,1099,1096,1093,1090,1087,1084,1078,1075,1072,1069,1066,1060,1057,1054,1051,1048,1042,1039,1036,1033,1027,1024,1021,1018,1015,1012,1009,1006,1000,997,994,991,985,982,979,973,970,967,964,958,952,949,943,937,931,925,919,916,910,904,898,892,889,883,877,871,865,862,859,853,850,844,838,832,826,820,814,808,802,796,790,787,781,775,769,763,757,751,745,739,733,730,724,718,712,706,703,700,694,691,685,682,679,673,670,664,661,655,652,646,640,637,631,625,619,616,610,604,601,595,589,583,580,574,568,565,559,553,547,544,538,532,526,523,517,514,508,505,502,496,493,487,484,478,475,469,466,460,457,451,448,448,448,448,448,448,448,448,448,445,445,445,445,445,445,445
2254,2251,2248,2248,2242,2239,2233,2230,2224,2221,2218,2218,2221,2224,2224,2221,2218,2215,2218,2218,2218,2218,2221,2221,2221,2221,2224,2224,2230,2236,2242,2248,2254,2260,2263,2266,2266,2269,2272,2275,2278,2281,2284,2287,2290,2296,2296,2290,2287,2284,2278,2275,2269,2263,2257,2251,2245,2239,2233,2230,2224,2218,2212,2209,2203,2200,2194,2191,2188,2182,2179,2176,2173,2170,2167,2164,2164,2164,2161,2161,2161,2161,2158,2158,2158,2155,2152,2152,2149,2149,2146,2143,2140,2137,2134,2131,2128,2125,2122,2116,2113,2107,2104,2098,2095,2092,2089,2086,2086,2083,2080,2077,2077,2074,2071,2071,2065,2059,2053,2047,2041,2035,2032,2026,2023,2020,2017,2014,2011,2005,2002,1999,1996,1993,1990,1990,1987,1984,1984,1981,1981,1978,1978,1975,1975,1972,1969,1966,1960,1957,1951,1948,1942,1939,1936,1936,1933,1930,1927,1924,1924,1921,1918,1915,1915,1912,1909,1906,1906,1903,1900,1897,1894,1894,1891,1888,1885,1885,1885,1882,1882,1882,1879,1879,1879,1879,1876,1876,1876,1873,1873,1873,1873,1870,1870,1870,1867,1867,1867,1867,1864,1864,1864,1861,1864,1864,1867,1867,1867,1870,1870,1873,1873,1876,1876,1876,1879,1879,1882,1882,1882,1885,1885,1882,1879,1879,1876,1873,1870,1864,1861,1858,1855,1849,1846,1840,1837,1831,1825,1822,1816,1813,1807,1804,1798,1795,1792,1786,1783,1780,1777,1774,1771,1768,1765,1762,1756,1753,1750,1747,1744,1741,1738,1735,1732,1726,1723,1720,1717,1714,1711,1708,1705,1702,1696,1693,1690,1687,1684,1681,1675,1672,1669,1666,1660,1657,1654,1651,1645,1642,1639,1636,1630,1627,1624,1624,1621,1618,1615,1612,1612,1609,1606,1603,1600,1600,1597,1594,1591,1588,1585,1585,1582,1579,1576,1573,1570,1567,1564,1564,1561,1561,1558,1558,1558,1555,1555,1555,1555,1552,1549,1549,1546,1543,1543,1540,1540,1537,1534,1534,1531,1528,1528,1525,1522,1522,1519,1516,1516,1513,1510,1510,1507,1504,1501,1498,1495,1492,1489,1486,1483,1480,1477,1474,1471,1468,1465,1462,1459,1453,1450,1447,1441,1438,1432,1429,1423,1417,1414,1408,1402,1399,1393,1390,1384,1378,1375,1369,1363,1360,1354,1348,1345,1339,1336,1333,1327,1324,1318,1312,1306,1300,1294,1288,1285,1282,1279,1279,1276,1276,1273,1270,1267,1264,1258,1255,1252,1249,1243,1240,1237,1231,1228,1225,1219,1216,1213,1207,1204,1201,1195,1195,1192,1192,1189,1186,1186,1183,1180,1180,1177,1177,1174,1171,1171,1168,1168,1165,1162,1162,1159,1162,1165,1165,1168,1168,1168,1168,1165,1162,1159,1156,1153,1153,1150,1147,1144,1141,1138,1135,1132,1129,1129,1126,1123,1120,1117,1114,1111,1108,1105,1105,1102,1099,1096,1093,1090,1087,1084,1081,1075,1072,1069,1066,1063,1057,1054,1051,1048,1042,1039,1036,1033,1030,1027,1024,1021,1018,1015,1012,1006,1003,1000,997,994,988,985,982,976,973,970,967,961,955,952,946,940,934,928,925,919,913,907,901,898,892,886,880,874,868,865,862,859,856,850,844,838,832,826,820,814,808,802,796,790,784,781,775,769,763,757,751,745,739,733,727,724,718,712,706,703,700,694,691,685,682,679,673,670,664,661,655,652,646,640,637,631,625,622,616,610,604,601,595,589,583,580,574,568,565,559,553,547,544,538,532,529,523,517,514,508,505,499,496,490,487,484,478,475,469,466,460,457,451,448,448,448,448,448,448,448,448,448,445,445,445,445,445,445,445
2254,2251,2248,2245,2245,2242,2236,2233,2227,2224,2224,2227,2227,2224,2221,2215,2209,2209,2209,2209,2212,2212,2212,2212,2215,2215,2215,2218,2224,2230,2236,2242,2248,2251,2254,2257,2260,2260,2263,2266,2269,2272,2275,2278,2284,2287,2290,2287,2284,2278,2275,2272,2266,2260,2257,2251,2245,2239,2233,2230,2224,2218,2212,2209,2203,2200,2194,2191,2188,2182,2179,2176,2173,2170,2167,2167,2167,2164,2164,2164,2161,2161,2161,2158,2158,2155,2155,2152,2152,2149,2146,2143,2140,2137,2134,2131,2128,2125,2122,2116,2113,2107,2101,2098,2095,2092,2089,2089,2086,2083,2080,2080,2077,2074,2074,2071,2065,2059,2053,2047,2044,2038,2032,2029,2023,2020,2017,2014,2011,2008,2002,1999,1996,1996,1993,1990,1987,1987,1984,1984,1981,1981,1978,1978,1975,1975,1972,1966,1960,1957,1951,1948,1942,1939,1936,1933,1933,1930,1927,1924,1921,1921,1918,1915,1912,1912,1909,1906,1903,1900,1900,1897,1894,1891,1891,1888,1885,1882,1882,1882,1879,1879,1879,1879,1876,1876,1876,1873,1873,1873,1873,1870,1870,1870,1867,1867,1867,1867,1864,1864,1864,1861,1861,1861,1858,1861,1861,1861,1864,1864,1867,1867,1867,1870,1870,1873,1873,1873,1876,1876,1879,1879,1882,1879,1879,1876,1873,1870,1864,1861,1858,1855,1852,1846,1843,1837,1834,1828,1825,1819,1816,1810,1807,1801,1795,1792,1789,1786,1783,1780,1777,1771,1768,1765,1762,1759,1756,1753,1750,1747,1741,1738,1735,1732,1729,1726,1723,1720,1717,1711,1708,1705,1702,1699,1696,1690,1687,1684,1678,1675,1672,1669,1663,1660,1657,1654,1651,1645,1642,1639,1636,1630,1627,1624,1621,1618,1615,1615,1612,1609,1606,1603,1600,1600,1597,1594,1591,1588,1585,1585,1582,1579,1576,1573,1570,1567,1564,1561,1558,1555,1555,1552,1552,1549,1549,1549,1549,1546,1546,1546,1543,1543,1543,1540,1540,1540,1537,1534,1534,1531,1528,1528,1525,1522,1522,1519,1519,1516,1513,1513,1510,1507,1504,1504,1501,1498,1495,1492,1489,1486,1483,1480,1477,1474,1471,1468,1462,1459,1456,1453,1450,1444,1441,1435,1432,1426,1420,1417,1411,1405,1402,1396,1390,1387,1381,1378,1372,1366,1363,1357,1351,1348,1342,1336,1333,1330,1327,1324,1318,1312,1306,1300,1294,1291,1285,1282,1282,1279,1279,1276,1273,1270,1267,1261,1258,1255,1252,1246,1243,1240,1234,1231,1228,1222,1219,1216,1210,1207,1204,1198,1195,1192,1189,1186,1186,1183,1180,1180,1177,1174,1174,1171,1171,1168,1165,1165,1162,1159,1159,1156,1159,1159,1162,1162,1165,1162,1162,1162,1162,1159,1156,1153,1150,1150,1147,1144,1141,1138,1135,1132,1129,1129,1126,1123,1120,1117,1114,1111,1108,1105,1105,1102,1099,1096,1093,1090,1087,1084,1081,1075,1072,1069,1066,1063,1057,1054,1051,1048,1045,1039,1036,1033,1030,1027,1024,1021,1018,1015,1012,1009,1006,1000,997,994,991,988,985,979,976,973,967,964,961,955,949,943,937,934,928,922,916,910,907,901,895,889,883,877,874,868,865,862,859,856,850,844,838,832,826,820,814,808,802,796,790,784,778,775,769,763,757,751,745,739,733,727,721,718,712,706,703,700,694,691,685,682,679,673,670,664,661,655,652,646,640,637,631,625,622,616,610,604,601,595,589,586,580,574,568,565,559,553,547,544,538,532,529,523,517,514,508,505,499,496,490,487,481,478,472,469,463,460,457,451,448,448,448,448,448,448,448,448,448,445,445,445,445,445,445,445
2254,2251,2248,2245,2242,2242,2239,2236,2230,2230,2227,2227,2224,2218,2212,2206,2203,2203,2203,2203,2203,2203,2206,2206,2206,2206,2209,2212,2218,2224,2230,2236,2239,2242,2245,2248,2251,2251,2254,2257,2260,2263,2269,2272,2275,2281,2284,2284,2281,2275,2272,2266,2263,2260,2254,2248,2245,2239,2233,2227,2224,2218,2212,2209,2203,2200,2194,2191,2188,2182,2179,2176,2173,2170,2170,2167,2167,2167,2167,2164,2164,2161,2161,2158,2158,2155,2155,2152,2152,2149,2146,2140,2137,2134,2131,2128,2125,2122,2119,2116,2110,2107,2101,2098,2095,2092,2092,2089,2086,2083,2083,2080,2077,2077,2074,2071,2068,2062,2056,2050,2044,2038,2032,2029,2023,2020,2017,2014,2011,2008,2002,2002,1999,1996,1993,1993,1990,1990,1987,1987,1984,1984,1981,1981,1978,1975,1972,1966,1963,1957,1954,1948,1942,1939,1936,1933,1930,1930,1927,1924,1921,1918,1918,1915,1912,1909,1909,1906,1903,1900,1897,1897,1894,1891,1888,1888,1885,1882,1879,1879,1879,1876,1876,1876,1876,1873,1873,1873,1870,1870,1870,1870,1867,1867,1867,1867,1864,1864,1864,1861,1861,1861,1861,1858,1858,1855,1858,1858,1858,1861,1861,1861,1864,1864,1867,1867,1867,1870,1870,1873,1873,1873,1876,1876,1876,1873,1870,1864,1861,1858,1855,1852,1849,1846,1840,1837,1831,1828,1822,1816,1813,1807,1804,1798,1795,1789,1786,1783,1780,1777,1774,1771,1768,1765,1762,1756,1753,1750,1747,1744,1741,1738,1735,1732,1726,1723,1720,1717,1714,1711,1708,1705,1699,1696,1693,1687,1684,1678,1675,1672,1666,1663,1660,1657,1651,1648,1645,1642,1639,1633,1630,1627,1624,1618,1615,1615,1612,1609,1606,1603,1600,1600,1597,1594,1591,1588,1585,1582,1582,1579,1576,1573,1570,1567,1564,1561,1558,1555,1552,1549,1549,1546,1543,1543,1543,1540,1540,1540,1537,1537,1537,1534,1534,1534,1534,1531,1531,1531,1528,1528,1528,1525,1525,1522,1519,1519,1516,1513,1513,1510,1507,1507,1504,1501,1501,1498,1495,1492,1489,1486,1483,1480,1477,1471,1468,1465,1462,1459,1456,1453,1447,1444,1438,1435,1429,1423,1420,1414,1408,1405,1399,1393,1390,1384,1381,1375,1369,1366,1360,1354,1351,1345,1339,1336,1330,1327,1324,1321,1318,1312,1303,1297,1294,1291,1285,1282,1282,1282,1279,1276,1273,1270,1264,1261,1258,1252,1249,1246,1243,1237,1234,1231,1225,1222,1219,1213,1210,1207,1201,1198,1195,1189,1186,1183,1180,1177,1177,1174,1174,1171,1168,1168,1165,1162,1162,1159,1159,1156,1153,1153,1156,1156,1159,1159,1159,1159,1156,1156,1156,1156,1153,1150,1147,1144,1144,1141,1138,1135,1132,1129,1126,1126,1123,1120,1117,1114,1111,1108,1105,1102,1102,1099,1096,1093,1090,1087,1084,1081,1078,1072,1069,1066,1063,1057,1054,1051,1048,1045,1042,1039,1036,1033,1030,1027,1024,1021,1018,1015,1012,1009,1003,1000,997,994,991,985,982,979,976,970,967,964,958,952,946,943,937,931,925,919,916,910,904,898,892,886,883,877,874,871,868,862,859,856,850,844,838,832,826,820,814,808,802,796,790,784,778,772,769,763,757,751,745,739,733,727,721,718,712,706,703,697,694,691,685,682,676,673,670,664,661,655,652,646,640,637,631,625,622,616,610,604,601,595,589,586,580,574,568,565,559,553,547,544,538,532,529,523,520,514,508,505,499,496,490,487,481,478,472,469,463,460,454,451,448,448,448,448,448,448,448,448,448,445,445,445,445,445,445,445
2251,2251,2248,2245,2242,2239,2239,2236,2233,2230,2227,2221,2215,2209,2203,2197,2197,2197,2194,2194,2197,2197,2197,2197,2200,2200,2200,2206,2212,2218,2224,2227,2230,2233,2236,2239,2242,2245,2245,2248,2251,2257,2260,2263,2269,2272,2275,2281,2275,2272,2269,2263,2260,2254,2251,2248,2242,2239,2233,2227,2224,2218,2212,2209,2203,2200,2194,2191,2188,2182,2179,2176,2173,2173,2170,2170,2170,2167,2167,2167,2164,2164,2161,2161,2158,2155,2155,2152,2149,2146,2143,2140,2137,2134,2131,2128,2125,2122,2119,2116,2110,2107,2101,2098,2095,2095,2092,2089,2086,2086,2083,2080,2080,2077,2074,2071,2068,2062,2056,2050,2044,2038,2032,2029,2023,2020,2017,2014,2011,2008,2005,2002,1999,1999,1996,1996,1993,1993,1990,1990,1987,1987,1984,1984,1981,1975,1972,1966,1963,1957,1954,1948,1945,1939,1936,1933,1930,1927,1924,1924,1921,1918,1915,1915,1912,1909,1906,1906,1903,1900,1897,1894,1894,1891,1888,1885,1885,1882,1879,1876,1876,1876,1876,1873,1873,1873,1870,1870,1870,1870,1867,1867,1867,1864,1864,1864,1864,1861,1861,1861,1861,1858,1858,1855,1855,1852,1852,1855,1855,1855,1858,1858,1858,1861,1861,1861,1864,1864,1867,1867,1867,1870,1870,1873,1873,1870,1864,1861,1858,1855,1852,1849,1846,1843,1837,1834,1828,1825,1819,1816,1810,1807,1801,1798,1792,1789,1786,1783,1780,1774,1771,1768,1765,1762,1759,1756,1753,1750,1744,1741,1738,1735,1732,1729,1726,1723,1720,1714,1711,1708,1705,1699,1696,1693,1690,1684,1681,1675,1669,1666,1663,1660,1654,1651,1648,1645,1639,1636,1633,1630,1627,1621,1618,1615,1612,1609,1606,1603,1600,1600,1597,1594,1591,1588,1585,1582,1582,1579,1576,1573,1570,1567,1564,1561,1558,1555,1552,1549,1546,1543,1543,1540,1537,1537,1534,1534,1531,1531,1531,1528,1528,1528,1528,1525,1525,1525,1522,1522,1522,1519,1519,1519,1516,1516,1516,1516,1513,1513,1510,1507,1507,1504,1504,1501,1498,1495,1495,1492,1489,1486,1483,1477,1474,1471,1468,1465,1462,1459,1456,1450,1447,1441,1438,1432,1426,1423,1417,1411,1408,1402,1396,1393,1387,1384,1378,1372,1369,1363,1357,1354,1348,1342,1339,1333,1327,1324,1321,1318,1315,1309,1303,1297,1294,1291,1288,1285,1282,1282,1279,1276,1273,1267,1264,1261,1255,1252,1249,1243,1240,1237,1234,1228,1225,1222,1216,1213,1210,1204,1201,1198,1192,1189,1186,1180,1177,1174,1171,1171,1168,1168,1165,1162,1162,1159,1156,1156,1153,1153,1150,1150,1153,1156,1156,1153,1153,1153,1153,1153,1150,1150,1150,1147,1144,1141,1138,1138,1135,1132,1129,1126,1123,1123,1120,1117,1114,1111,1108,1105,1102,1099,1099,1096,1093,1090,1087,1084,1081,1078,1072,1069,1066,1063,1060,1054,1051,1048,1045,1042,1039,1036,1033,1030,1027,1024,1021,1018,1015,1012,1009,1006,1003,997,994,991,988,985,982,979,973,970,967,961,955,949,946,940,934,928,922,919,913,907,901,895,892,886,880,877,874,871,868,865,859,856,850,844,838,832,826,820,814,808,802,796,790,784,778,772,766,763,757,751,745,739,733,727,721,718,712,706,703,697,694,691,685,682,676,673,670,664,661,655,652,646,643,637,631,625,622,616,610,607,601,595,589,586,580,574,568,565,559,553,550,544,538,535,529,523,520,514,508,505,499,493,490,487,481,478,472,469,463,460,454,451,448,448,448,448,448,448,448,448,448,445,445,445,445,445,445,445
2251,2248,2248,2245,2242,2239,2236,2233,2230,2224,2218,2212,2206,2200,2194,2191,2191,2188,2188,2188,2188,2188,2191,2191,2191,2191,2194,2200,2206,2212,2218,2221,2224,2224,2227,2230,2233,2236,2236,2242,2245,2248,2251,2257,2260,2263,2269,2272,2272,2269,2263,2260,2254,2251,2248,2245,2242,2236,2233,2227,2221,2218,2212,2209,2203,2200,2194,2191,2188,2182,2179,2176,2173,2173,2173,2170,2170,2170,2167,2167,2164,2164,2161,2161,2158,2158,2155,2152,2149,2146,2143,2140,2137,2134,2131,2128,2125,2122,2119,2113,2110,2104,2101,2098,2098,2095,2092,2089,2089,2086,2083,2083,2080,2077,2074,2074,2068,2062,2056,2050,2047,2041,2035,2029,2023,2020,2017,2014,2011,2008,2005,2005,2002,1999,1999,1996,1996,1993,1993,1990,1990,1987,1987,1984,1981,1978,1972,1969,1963,1957,1954,1948,1945,1939,1936,1933,1930,1927,1924,1921,1921,1918,1915,1912,1912,1909,1906,1903,1900,1900,1897,1894,1891,1891,1888,1885,1882,1879,1879,1876,1876,1873,1873,1873,1870,1870,1870,1870,1867,1867,1867,1864,1864,1864,1864,1861,1861,1861,1858,1858,1858,1858,1855,1855,1852,1852,1849,1849,1852,1852,1852,1852,1855,1855,1858,1858,1858,1861,1861,1864,1864,1864,1867,1867,1867,1864,1861,1858,1855,1852,1849,1846,1843,1840,1837,1831,1828,1822,1819,1813,1807,1804,1798,1795,1789,1786,1783,1780,1777,1774,1771,1768,1765,1759,1756,1753,1750,1747,1744,1741,1738,1735,1729,1726,1723,1720,1717,1714,1708,1705,1702,1696,1693,1690,1684,1681,1675,1672,1666,1660,1657,1654,1651,1648,1642,1639,1636,1633,1630,1624,1621,1618,1615,1609,1606,1603,1600,1597,1597,1594,1591,1588,1585,1582,1582,1579,1576,1573,1570,1567,1567,1564,1558,1555,1552,1549,1546,1543,1540,1537,1537,1534,1531,1531,1528,1525,1525,1522,1522,1522,1522,1519,1519,1519,1516,1516,1516,1513,1513,1513,1510,1510,1510,1510,1507,1507,1507,1504,1504,1504,1501,1501,1501,1498,1498,1495,1492,1492,1486,1483,1480,1477,1474,1471,1465,1462,1459,1456,1450,1447,1444,1438,1435,1429,1426,1420,1414,1411,1405,1399,1396,1390,1384,1381,1375,1372,1366,1360,1357,1351,1345,1342,1336,1330,1327,1324,1318,1315,1312,1309,1303,1297,1294,1291,1288,1285,1285,1282,1279,1276,1270,1267,1264,1258,1255,1252,1246,1243,1240,1234,1231,1228,1222,1219,1216,1213,1207,1204,1201,1195,1192,1189,1183,1180,1177,1171,1168,1165,1165,1162,1159,1159,1156,1156,1153,1150,1150,1147,1147,1150,1150,1150,1150,1150,1150,1147,1147,1147,1147,1144,1144,1144,1141,1138,1135,1132,1132,1129,1126,1123,1120,1120,1117,1114,1111,1108,1105,1102,1099,1099,1096,1093,1090,1087,1084,1081,1078,1072,1069,1066,1063,1060,1057,1054,1051,1048,1045,1042,1039,1036,1033,1030,1027,1024,1021,1018,1015,1012,1009,1006,1000,997,994,988,985,982,979,976,973,970,964,958,955,949,943,937,931,928,922,916,910,904,901,895,889,886,880,877,874,871,868,865,859,856,850,844,838,832,826,820,814,808,802,796,790,784,778,772,766,760,757,751,745,739,733,727,721,715,712,706,700,697,694,688,685,682,676,673,667,664,661,655,652,646,643,637,631,625,622,616,610,607,601,595,589,586,580,574,571,565,559,553,550,544,538,535,529,523,520,514,508,505,499,493,490,484,481,475,472,466,463,460,454,451,448,448,448,448,448,448,448,448,448,445,445,445,445,445,445,445
2245,2242,2239,2236,2233,2227,2224,2221,2218,2215,2209,2203,2197,2191,2188,2185,2182,2182,2182,2182,2182,2182,2182,2182,2185,2185,2188,2194,2200,2206,2209,2212,2215,2215,2218,2221,2224,2227,2230,2233,2236,2242,2245,2248,2251,2257,2260,2263,2269,2263,2260,2257,2251,2248,2245,2242,2236,2233,2230,2227,2221,2218,2212,2209,2203,2200,2194,2191,2188,2182,2179,2176,2176,2176,2173,2173,2173,2170,2167,2167,2164,2164,2161,2161,2158,2158,2155,2152,2149,2146,2143,2140,2137,2134,2131,2128,2125,2122,2119,2113,2110,2104,2101,2101,2098,2095,2092,2092,2089,2086,2086,2083,2080,2077,2077,2074,2071,2065,2059,2053,2047,2041,2035,2029,2023,2020,2017,2014,2011,2011,2008,2005,2005,2002,2002,1999,1999,1996,1996,1993,1993,1990,1990,1987,1981,1978,1972,1969,1963,1960,1954,1951,1945,1939,1936,1930,1930,1927,1924,1921,1918,1918,1915,1912,1909,1909,1906,1903,1900,1897,1897,1894,1891,1888,1888,1885,1882,1879,1879,1879,1876,1873,1870,1870,1870,1870,1867,1867,1867,1864,1864,1864,1864,1861,1861,1861,1858,1858,1858,1858,1855,1855,1855,1852,1849,1849,1849,1846,1846,1849,1849,1849,1849,1852,1852,1852,1855,1855,1858,1858,1858,1861,1861,1861,1861,1858,1858,1855,1852,1849,1846,1843,1840,1837,1834,1828,1825,1819,1816,1810,1807,1801,1798,1792,1789,1786,1783,1780,1774,1771,1768,1765,1762,1759,1756,1753,1750,1744,1741,1738,1735,1732,1729,1726,1720,1717,1714,1708,1705,1702,1699,1693,1690,1687,1681,1675,1672,1666,1663,1657,1654,1651,1645,1642,1639,1636,1630,1627,1624,1621,1618,1612,1609,1606,1600,1597,1594,1591,1591,1588,1585,1582,1582,1579,1576,1573,1570,1567,1564,1564,1561,1555,1552,1549,1546,1543,1540,1537,1534,1531,1531,1528,1525,1525,1522,1519,1519,1516,1516,1513,1513,1513,1510,1510,1510,1507,1507,1507,1504,1504,1504,1504,1501,1501,1501,1498,1498,1498,1495,1495,1495,1495,1492,1492,1492,1489,1489,1486,1483,1480,1477,1471,1468,1465,1459,1456,1453,1447,1444,1441,1435,1432,1429,1426,1423,1417,1414,1408,1402,1399,1393,1387,1384,1378,1375,1369,1363,1360,1354,1348,1345,1339,1333,1330,1324,1321,1318,1315,1312,1306,1303,1300,1297,1291,1288,1288,1285,1282,1279,1273,1270,1267,1261,1258,1255,1249,1246,1243,1237,1234,1231,1225,1222,1219,1213,1210,1207,1204,1198,1195,1192,1186,1183,1180,1174,1171,1165,1162,1159,1159,1156,1153,1153,1150,1147,1147,1144,1144,1144,1147,1147,1147,1144,1144,1144,1144,1141,1141,1141,1141,1141,1138,1138,1135,1132,1129,1129,1126,1123,1120,1117,1114,1114,1111,1108,1105,1102,1099,1096,1096,1093,1090,1087,1084,1081,1078,1075,1069,1066,1063,1060,1057,1054,1051,1048,1045,1042,1039,1036,1033,1030,1027,1024,1021,1018,1015,1012,1009,1006,1003,1000,994,991,988,982,979,976,973,970,967,961,958,952,946,940,937,931,925,919,913,910,904,898,892,889,886,883,877,874,871,868,865,859,856,850,844,838,832,826,820,814,808,802,796,790,784,778,772,766,760,754,751,745,739,733,727,721,715,712,706,700,697,694,688,685,682,676,673,667,664,661,655,652,646,643,637,631,628,622,616,610,607,601,595,589,586,580,574,571,565,559,553,550,544,541,535,529,526,520,514,511,505,499,496,490,484,481,475,472,466,463,457,454,448,448,448,448,448,448,448,448,448,448,445,445,445,445,445,445,445
2236,2233,2230,2224,2221,2218,2215,2212,2209,2206,2200,2194,2191,2185,2179,2176,2176,2176,2176,2173,2173,2173,2176,2176,2176,2176,2182,2188,2194,2197,2200,2203,2206,2209,2209,2212,2215,2218,2221,2224,2230,2233,2236,2242,2245,2248,2254,2257,2260,2260,2257,2251,2248,2245,2242,2236,2236,2236,2233,2230,2224,2218,2212,2209,2203,2200,2194,2191,2188,2182,2179,2179,2176,2176,2176,2173,2173,2170,2170,2167,2167,2164,2161,2161,2158,2158,2155,2152,2149,2146,2140,2137,2134,2131,2128,2125,2122,2119,2116,2113,2107,2104,2104,2101,2098,2095,2095,2092,2089,2089,2086,2083,2080,2080,2077,2074,2071,2065,2059,2053,2047,2041,2035,2032,2026,2020,2020,2017,2014,2011,2011,2008,2008,2005,2005,2002,2002,1999,1999,1996,1996,1993,1993,1987,1984,1978,1972,1969,1963,1960,1954,1951,1945,1942,1936,1930,1927,1924,1924,1921,1918,1915,1915,1912,1909,1906,1906,1903,1900,1897,1894,1894,1891,1888,1885,1885,1882,1879,1882,1879,1876,1873,1870,1870,1867,1867,1867,1864,1864,1864,1864,1861,1861,1861,1858,1858,1858,1858,1855,1855,1855,1852,1852,1849,1849,1846,1846,1846,1843,1846,1846,1846,1846,1846,1846,1849,1849,1852,1852,1852,1855,1855,1858,1855,1855,1852,1852,1849,1849,1846,1843,1840,1837,1834,1831,1828,1822,1819,1813,1810,1804,1798,1795,1789,1786,1783,1780,1777,1774,1771,1768,1762,1759,1756,1753,1750,1747,1744,1741,1738,1732,1729,1726,1723,1717,1714,1711,1705,1702,1699,1693,1690,1687,1681,1678,1672,1669,1663,1657,1654,1648,1645,1642,1639,1633,1630,1627,1624,1618,1615,1612,1609,1606,1600,1597,1591,1588,1585,1585,1582,1579,1579,1576,1573,1570,1567,1564,1564,1561,1558,1552,1549,1546,1543,1540,1537,1534,1531,1528,1525,1525,1522,1519,1519,1516,1513,1513,1510,1507,1507,1504,1504,1504,1501,1501,1501,1498,1498,1498,1498,1495,1495,1495,1492,1492,1492,1489,1489,1489,1489,1486,1486,1486,1483,1483,1483,1480,1480,1477,1474,1468,1465,1462,1459,1453,1450,1447,1441,1438,1435,1429,1426,1423,1420,1417,1414,1411,1405,1402,1396,1390,1387,1381,1378,1372,1366,1363,1357,1351,1348,1342,1336,1333,1327,1321,1318,1315,1312,1309,1306,1303,1300,1297,1294,1291,1288,1285,1282,1276,1273,1270,1264,1261,1258,1252,1249,1246,1240,1237,1234,1228,1225,1222,1216,1213,1210,1204,1201,1198,1192,1189,1186,1180,1177,1174,1168,1165,1162,1156,1153,1150,1150,1147,1147,1144,1141,1141,1141,1141,1141,1141,1141,1141,1138,1138,1138,1138,1138,1135,1135,1135,1135,1132,1132,1129,1126,1123,1123,1120,1117,1114,1111,1108,1108,1105,1102,1099,1096,1093,1093,1090,1087,1084,1081,1078,1075,1072,1069,1066,1063,1060,1057,1054,1051,1048,1045,1042,1039,1036,1033,1030,1027,1024,1021,1018,1015,1012,1009,1006,1003,997,994,991,985,982,979,976,973,967,964,961,955,949,946,940,934,928,922,919,913,907,901,898,892,889,886,883,880,877,874,868,865,862,856,850,844,838,832,826,820,814,805,802,796,790,784,778,772,766,760,754,748,745,739,733,727,721,715,712,706,700,697,691,688,685,679,676,673,667,664,661,655,652,646,643,637,631,628,622,616,610,607,601,595,592,586,580,574,571,565,559,556,550,544,541,535,529,526,520,514,511,505,499,496,490,484,481,475,472,466,463,457,454,448,448,448,448,448,448,448,448,448,448,445,445,445,445,445,445,445
2224,2221,2218,2215,2212,2209,2206,2203,2200,2197,2191,2188,2182,2176,2170,2170,2170,2170,2167,2167,2167,2167,2167,2167,2170,2170,2176,2182,2188,2188,2191,2194,2197,2200,2200,2203,2206,2209,2212,2218,2221,2224,2230,2233,2236,2242,2245,2248,2254,2257,2254,2248,2245,2242,2239,2242,2242,2242,2236,2230,2224,2218,2212,2209,2203,2200,2194,2191,2188,2182,2179,2179,2179,2176,2176,2173,2173,2170,2170,2167,2167,2164,2164,2161,2158,2155,2152,2149,2146,2143,2140,2137,2134,2131,2128,2125,2122,2119,2116,2113,2107,2107,2104,2101,2098,2098,2095,2092,2092,2089,2086,2083,2083,2080,2077,2077,2071,2065,2059,2056,2050,2044,2038,2032,2026,2023,2020,2017,2017,2014,2011,2011,2008,2008,2005,2005,2002,2002,1999,1999,1996,1996,1993,1987,1984,1978,1975,1969,1966,1960,1954,1951,1945,1942,1936,1933,1927,1924,1921,1921,1918,1915,1912,1912,1909,1906,1903,1900,1900,1897,1894,1891,1891,1888,1885,1882,1882,1882,1882,1882,1876,1873,1870,1867,1867,1864,1864,1864,1864,1861,1861,1861,1858,1858,1858,1858,1855,1855,1855,1852,1852,1852,1849,1849,1846,1843,1843,1843,1840,1840,1843,1843,1843,1843,1843,1843,1846,1846,1849,1849,1849,1852,1852,1849,1849,1846,1846,1843,1843,1840,1840,1837,1834,1831,1828,1825,1819,1816,1810,1807,1801,1798,1792,1789,1786,1783,1777,1774,1771,1768,1765,1762,1759,1756,1753,1747,1744,1741,1738,1735,1729,1726,1723,1717,1714,1711,1708,1702,1699,1696,1690,1687,1684,1678,1672,1669,1663,1660,1654,1648,1645,1639,1636,1633,1630,1627,1621,1618,1615,1612,1606,1603,1600,1597,1591,1588,1585,1579,1579,1576,1573,1573,1570,1567,1564,1564,1561,1558,1555,1552,1546,1543,1540,1537,1534,1531,1528,1525,1522,1519,1516,1516,1513,1513,1510,1507,1507,1504,1501,1501,1498,1495,1495,1495,1495,1492,1492,1492,1489,1489,1489,1486,1486,1486,1483,1483,1483,1483,1480,1480,1480,1477,1477,1477,1474,1474,1474,1471,1471,1465,1462,1459,1456,1450,1447,1444,1441,1435,1432,1429,1423,1420,1417,1411,1408,1405,1402,1399,1396,1393,1390,1384,1381,1375,1369,1366,1360,1354,1351,1345,1339,1336,1330,1324,1321,1315,1312,1309,1306,1303,1300,1300,1297,1294,1291,1288,1285,1279,1276,1273,1267,1264,1261,1255,1252,1249,1243,1240,1237,1231,1228,1225,1219,1216,1213,1207,1204,1201,1195,1192,1189,1183,1180,1177,1171,1168,1165,1159,1156,1153,1147,1144,1144,1141,1141,1138,1135,1138,1138,1138,1138,1135,1135,1135,1135,1132,1132,1132,1132,1129,1129,1129,1129,1126,1126,1123,1120,1117,1117,1114,1111,1108,1105,1102,1102,1099,1096,1093,1090,1087,1087,1084,1081,1078,1075,1072,1069,1066,1063,1060,1057,1054,1051,1048,1045,1042,1039,1036,1033,1030,1027,1024,1021,1018,1015,1012,1009,1006,1003,1000,997,991,988,985,979,976,973,970,967,964,961,955,949,943,937,931,928,922,916,910,904,901,898,892,889,886,883,880,877,874,868,865,862,856,850,844,838,832,826,820,814,808,799,796,790,784,778,772,766,760,754,748,742,739,733,727,721,715,709,706,700,697,691,688,685,679,676,673,667,664,658,655,652,646,643,637,631,628,622,616,613,607,601,595,592,586,580,574,571,565,559,556,550,544,541,535,529,526,520,514,511,505,502,496,490,487,481,475,472,466,463,457,454,448,448,448,448,448,448,448,448,448,448,445,445,445,445,445,445,445
2215,2212,2209,2206,2203,2200,2197,2194,2191,2188,2185,2179,2173,2167,2164,2164,2164,2161,2161,2161,2161,2158,2161,2161,2161,2164,2170,2176,2179,2179,2182,2185,2188,2191,2191,2194,2197,2203,2206,2209,2215,2218,2221,2224,2230,2233,2236,2242,2245,2248,2248,2245,2245,2245,2245,2248,2245,2242,2236,2230,2227,2221,2215,2209,2203,2200,2194,2191,2188,2182,2182,2182,2179,2179,2176,2176,2173,2170,2170,2167,2167,2164,2164,2161,2158,2155,2152,2149,2146,2143,2140,2137,2134,2131,2128,2125,2122,2119,2116,2113,2110,2107,2104,2101,2101,2098,2095,2095,2092,2089,2086,2086,2083,2080,2080,2077,2074,2068,2062,2056,2050,2044,2038,2035,2029,2026,2023,2020,2017,2017,2014,2014,2011,2011,2008,2008,2005,2005,2002,2002,1999,1999,1993,1987,1984,1978,1975,1969,1966,1960,1957,1951,1945,1942,1936,1933,1927,1924,1921,1918,1918,1915,1912,1909,1909,1906,1903,1900,1897,1897,1894,1891,1888,1888,1885,1882,1882,1882,1885,1882,1879,1873,1870,1867,1864,1864,1861,1861,1861,1861,1858,1858,1858,1858,1855,1855,1855,1852,1852,1852,1852,1849,1849,1846,1843,1843,1840,1840,1840,1837,1837,1840,1840,1840,1840,1840,1840,1843,1843,1843,1846,1846,1846,1843,1843,1840,1840,1837,1837,1834,1834,1831,1831,1828,1825,1819,1816,1813,1810,1804,1801,1795,1792,1786,1783,1780,1777,1774,1771,1768,1762,1759,1756,1753,1750,1747,1744,1738,1735,1732,1726,1723,1720,1714,1711,1708,1702,1699,1696,1690,1687,1684,1678,1675,1669,1663,1660,1654,1651,1645,1642,1636,1633,1630,1624,1621,1618,1615,1609,1606,1603,1600,1597,1591,1588,1582,1579,1576,1570,1570,1567,1567,1564,1561,1561,1558,1555,1552,1549,1546,1540,1537,1534,1531,1528,1525,1522,1516,1516,1513,1510,1510,1507,1504,1504,1501,1501,1498,1495,1495,1492,1489,1489,1486,1486,1486,1483,1483,1483,1480,1480,1480,1477,1477,1477,1477,1474,1474,1474,1471,1471,1471,1468,1468,1468,1465,1465,1462,1462,1459,1456,1453,1447,1444,1441,1438,1432,1429,1426,1420,1417,1414,1411,1405,1402,1399,1396,1393,1390,1387,1384,1381,1378,1372,1369,1363,1357,1354,1348,1342,1339,1333,1327,1324,1318,1312,1309,1306,1303,1303,1300,1297,1297,1294,1291,1288,1282,1279,1276,1270,1267,1264,1258,1255,1252,1246,1243,1240,1234,1231,1228,1222,1219,1216,1210,1207,1204,1198,1195,1192,1186,1183,1180,1174,1171,1168,1162,1159,1156,1150,1147,1144,1138,1138,1135,1132,1135,1135,1132,1132,1132,1132,1129,1129,1129,1129,1126,1126,1126,1126,1123,1123,1123,1123,1123,1120,1117,1114,1111,1111,1108,1105,1102,1099,1096,1096,1093,1090,1087,1084,1081,1081,1078,1075,1072,1069,1069,1066,1063,1060,1057,1054,1051,1048,1045,1042,1039,1036,1033,1030,1027,1024,1021,1018,1015,1012,1009,1006,1003,1000,994,991,988,982,979,976,970,967,964,961,958,952,946,940,934,931,925,919,913,910,904,901,898,895,889,886,883,880,877,874,871,865,862,856,850,844,838,832,826,820,814,808,802,793,790,784,778,772,766,760,754,748,742,739,733,727,721,715,709,706,700,694,691,688,682,679,676,673,667,664,658,655,652,646,643,637,631,628,622,616,613,607,601,595,592,586,580,577,571,565,559,556,550,547,541,535,532,526,520,517,511,505,502,496,490,487,481,475,472,466,460,457,451,448,448,448,448,448,448,448,448,448,448,445,445,445,445,445,445,448
2206,2203,2200,2197,2194,2191,2188,2185,2182,2179,2176,2170,2164,2158,2158,2158,2155,2155,2155,2155,2152,2152,2152,2152,2155,2158,2164,2167,2170,2170,2173,2176,2179,2182,2185,2185,2191,2194,2197,2203,2206,2209,2215,2218,2221,2224,2230,2233,2236,2242,2245,2248,2251,2251,2251,2251,2248,2242,2239,2233,2227,2221,2215,2212,2206,2200,2197,2191,2188,2185,2182,2182,2179,2179,2176,2176,2173,2173,2170,2170,2167,2164,2164,2161,2158,2155,2152,2149,2146,2143,2140,2137,2134,2131,2128,2125,2122,2119,2116,2113,2110,2107,2104,2104,2101,2098,2098,2095,2092,2089,2089,2086,2083,2083,2080,2077,2074,2068,2062,2056,2053,2047,2041,2038,2032,2029,2026,2023,2020,2017,2017,2014,2014,2014,2011,2011,2008,2008,2005,2005,2002,1999,1993,1990,1984,1981,1975,1969,1966,1960,1957,1951,1948,1942,1939,1933,1927,1924,1921,1918,1915,1915,1912,1909,1906,1906,1903,1900,1897,1894,1894,1891,1888,1885,1885,1885,1885,1885,1885,1885,1879,1876,1870,1867,1864,1861,1861,1861,1858,1858,1858,1855,1855,1855,1855,1852,1852,1852,1852,1849,1849,1849,1846,1843,1843,1840,1837,1837,1837,1837,1834,1834,1837,1837,1837,1837,1837,1837,1840,1840,1840,1840,1840,1837,1837,1834,1834,1831,1831,1828,1828,1825,1825,1822,1819,1816,1813,1810,1807,1801,1798,1792,1789,1786,1780,1777,1774,1771,1768,1765,1762,1759,1756,1750,1747,1744,1738,1735,1732,1729,1723,1720,1717,1711,1708,1705,1699,1696,1693,1687,1684,1678,1675,1669,1666,1660,1657,1651,1645,1642,1636,1633,1627,1624,1621,1618,1612,1609,1606,1603,1597,1594,1591,1588,1582,1579,1573,1570,1567,1564,1561,1561,1558,1555,1555,1552,1549,1546,1543,1540,1534,1531,1528,1522,1519,1519,1513,1510,1510,1507,1504,1504,1501,1498,1498,1495,1492,1492,1489,1486,1486,1483,1483,1480,1477,1477,1477,1474,1474,1474,1471,1471,1471,1471,1468,1468,1468,1465,1465,1465,1462,1462,1462,1459,1459,1456,1456,1456,1453,1453,1447,1444,1441,1438,1432,1429,1426,1423,1417,1414,1411,1408,1402,1399,1396,1390,1387,1384,1381,1378,1375,1372,1369,1366,1363,1360,1357,1351,1345,1342,1336,1330,1327,1321,1315,1312,1309,1306,1303,1300,1297,1297,1294,1291,1288,1285,1282,1276,1273,1270,1264,1261,1258,1252,1249,1246,1240,1237,1234,1231,1225,1222,1219,1213,1210,1207,1201,1198,1195,1189,1186,1183,1177,1174,1171,1165,1162,1159,1153,1150,1147,1141,1138,1135,1132,1129,1129,1129,1129,1126,1126,1126,1126,1123,1123,1123,1123,1123,1120,1120,1120,1120,1117,1117,1117,1117,1114,1111,1108,1105,1105,1102,1099,1096,1093,1090,1090,1087,1084,1081,1078,1075,1075,1072,1072,1069,1066,1063,1060,1057,1054,1051,1048,1045,1042,1039,1036,1033,1030,1027,1024,1021,1018,1015,1012,1009,1006,1003,1000,997,994,988,985,982,976,973,970,964,961,958,955,952,946,940,934,928,922,916,913,910,904,901,898,895,892,889,886,883,877,874,871,865,862,856,850,844,838,832,826,820,814,808,802,793,787,784,778,772,766,760,754,748,742,736,733,727,721,715,709,706,700,694,691,688,682,679,676,670,667,664,658,655,649,646,643,637,631,628,622,616,613,607,601,595,592,586,580,577,571,565,562,556,550,547,541,535,532,526,520,517,511,505,502,496,490,487,481,475,472,466,460,457,451,448,448,448,448,448,448,448,448,448,448,445,445,445,445,445,445,448
2194,2191,2188,2188,2185,2182,2179,2176,2173,2170,2167,2161,2155,2152,2149,2149,2149,2149,2149,2146,2146,2146,2146,2146,2149,2152,2155,2158,2161,2164,2164,2167,2170,2173,2176,2179,2185,2188,2191,2197,2200,2203,2209,2212,2215,2221,2224,2227,2233,2236,2242,2248,2254,2257,2257,2257,2251,2245,2239,2233,2227,2221,2218,2212,2206,2203,2197,2191,2188,2185,2182,2182,2179,2179,2176,2176,2173,2173,2170,2170,2167,2167,2164,2161,2158,2155,2152,2149,2146,2143,2137,2134,2131,2128,2125,2122,2119,2119,2116,2113,2113,2110,2107,2104,2104,2101,2098,2095,2095,2092,2089,2086,2086,2083,2080,2077,2074,2071,2065,2059,2056,2050,2044,2041,2035,2032,2029,2026,2023,2020,2020,2017,2017,2014,2014,2011,2011,2008,2008,2005,2002,1999,1993,1990,1984,1981,1975,1972,1966,1960,1957,1951,1948,1942,1939,1933,1930,1924,1921,1918,1915,1912,1912,1909,1906,1903,1900,1900,1897,1894,1891,1891,1888,1885,1885,1885,1885,1885,1888,1885,1882,1876,1873,1870,1864,1861,1858,1858,1858,1855,1855,1855,1855,1852,1852,1852,1849,1849,1849,1849,1846,1846,1843,1843,1840,1837,1837,1834,1834,1834,1831,1831,1831,1834,1834,1834,1834,1834,1834,1837,1837,1834,1834,1831,1831,1828,1828,1825,1825,1822,1822,1819,1819,1816,1813,1813,1810,1807,1804,1801,1795,1792,1786,1783,1780,1777,1774,1771,1765,1762,1759,1756,1753,1747,1744,1741,1735,1732,1729,1723,1720,1717,1711,1708,1705,1699,1696,1693,1690,1684,1681,1675,1672,1666,1660,1657,1651,1648,1642,1636,1633,1627,1624,1618,1615,1612,1609,1606,1600,1597,1594,1591,1585,1582,1579,1573,1570,1564,1561,1558,1555,1552,1552,1549,1549,1546,1543,1540,1537,1534,1528,1525,1522,1516,1513,1510,1507,1504,1504,1501,1498,1498,1495,1492,1492,1489,1486,1486,1483,1480,1480,1477,1474,1474,1471,1468,1468,1468,1465,1465,1465,1465,1462,1462,1462,1459,1459,1459,1456,1456,1456,1453,1453,1453,1450,1450,1447,1447,1447,1444,1441,1438,1435,1429,1426,1423,1420,1414,1411,1408,1405,1399,1396,1393,1390,1384,1381,1378,1372,1369,1366,1363,1360,1357,1357,1354,1351,1348,1345,1339,1333,1330,1324,1318,1315,1309,1306,1303,1300,1300,1297,1294,1288,1285,1285,1282,1279,1276,1270,1267,1264,1258,1255,1252,1246,1243,1240,1234,1231,1228,1225,1219,1216,1213,1207,1204,1201,1195,1192,1189,1183,1180,1177,1171,1168,1165,1159,1156,1153,1147,1144,1141,1135,1132,1129,1126,1123,1123,1123,1123,1120,1120,1120,1120,1120,1117,1117,1117,1117,1114,1114,1114,1114,1111,1111,1111,1111,1108,1105,1102,1099,1099,1096,1093,1090,1087,1084,1084,1081,1078,1075,1072,1072,1069,1069,1066,1063,1063,1060,1057,1054,1051,1048,1045,1042,1039,1036,1033,1030,1027,1024,1021,1018,1015,1012,1009,1006,1003,1000,997,991,988,985,979,976,973,967,964,961,958,952,949,943,940,934,928,922,916,913,910,904,901,898,895,892,889,886,883,880,874,871,865,862,856,850,844,838,832,826,820,814,808,802,796,787,781,778,772,766,760,754,748,742,736,733,727,721,715,709,703,700,694,691,688,682,679,676,670,667,664,658,655,649,646,643,637,634,628,622,616,613,607,601,598,592,586,580,577,571,565,562,556,550,547,541,535,532,526,523,517,511,508,502,496,493,487,481,478,472,466,463,457,451,448,448,448,448,448,448,448,448,448,445,445,445,445,445,445,448,448
2185,2182,2179,2176,2173,2173,2170,2167,2164,2161,2158,2152,2146,2143,2143,2143,2143,2143,2140,2140,2140,2140,2137,2137,2140,2143,2146,2149,2152,2155,2158,2161,2164,2167,2170,2173,2179,2182,2185,2191,2194,2197,2203,2206,2209,2215,2218,2221,2227,2230,2236,2242,2248,2257,2257,2257,2251,2245,2239,2233,2230,2224,2218,2212,2209,2203,2200,2197,2191,2188,2185,2182,2182,2179,2176,2176,2173,2173,2170,2170,2167,2164,2161,2158,2155,2152,2149,2146,2143,2140,2137,2134,2131,2128,2128,2125,2122,2119,2119,2116,2113,2113,2110,2107,2107,2104,2101,2098,2098,2095,2092,2089,2089,2086,2083,2080,2077,2071,2068,2062,2059,2053,2047,2044,2038,2035,2032,2029,2026,2023,2020,2020,2020,2017,2017,2014,2014,2011,2011,2008,2005,1999,1993,1990,1984,1981,1975,1972,1966,1963,1957,1954,1948,1942,1939,1933,1930,1924,1921,1918,1915,1912,1909,1909,1906,1903,1900,1897,1897,1894,1891,1888,1888,1888,1888,1888,1888,1888,1888,1885,1882,1879,1873,1870,1867,1861,1858,1855,1855,1855,1855,1852,1852,1852,1849,1849,1849,1849,1846,1846,1846,1843,1843,1840,1837,1837,1834,1831,1831,1831,1831,1828,1828,1828,1831,1831,1831,1831,1831,1831,1834,1831,1828,1825,1825,1822,1822,1819,1819,1816,1816,1813,1813,1810,1810,1807,1804,1804,1801,1798,1792,1789,1783,1780,1777,1774,1771,1768,1765,1759,1756,1753,1747,1744,1741,1735,1732,1729,1726,1720,1717,1714,1708,1705,1702,1696,1693,1690,1684,1681,1675,1672,1666,1663,1657,1651,1648,1642,1639,1633,1630,1624,1618,1615,1612,1609,1603,1600,1597,1594,1588,1585,1582,1579,1573,1570,1564,1561,1558,1552,1549,1546,1546,1543,1540,1540,1537,1534,1531,1528,1522,1519,1516,1510,1507,1504,1501,1498,1498,1495,1492,1492,1489,1486,1486,1483,1480,1480,1477,1474,1474,1471,1468,1468,1465,1462,1462,1459,1459,1459,1456,1456,1456,1453,1453,1453,1450,1450,1450,1447,1447,1447,1444,1444,1441,1441,1441,1438,1438,1438,1435,1432,1426,1423,1420,1417,1411,1408,1405,1402,1396,1393,1390,1384,1381,1378,1375,1369,1366,1363,1360,1357,1354,1351,1348,1345,1342,1339,1336,1333,1330,1327,1321,1318,1312,1306,1303,1300,1300,1297,1291,1288,1282,1279,1276,1276,1273,1270,1267,1264,1261,1258,1252,1249,1246,1240,1237,1234,1228,1225,1222,1216,1213,1210,1204,1201,1198,1195,1189,1186,1183,1177,1174,1171,1165,1162,1159,1153,1150,1147,1141,1138,1135,1129,1126,1123,1120,1120,1117,1117,1117,1117,1114,1114,1114,1114,1111,1111,1111,1111,1108,1108,1108,1108,1108,1105,1105,1105,1102,1099,1096,1096,1093,1090,1087,1084,1081,1081,1078,1075,1072,1069,1069,1066,1066,1063,1063,1060,1057,1054,1051,1048,1045,1042,1039,1036,1033,1030,1027,1024,1021,1018,1015,1012,1009,1006,1003,1000,997,994,991,985,982,979,973,970,967,961,958,955,952,949,943,937,931,925,919,916,913,910,907,901,898,895,892,889,886,883,880,874,871,868,862,856,850,844,838,832,826,820,814,808,802,796,787,781,775,772,766,760,754,748,742,736,733,727,721,715,709,703,700,694,691,685,682,679,673,670,667,661,658,655,649,646,640,637,634,628,622,616,613,607,601,598,592,586,580,577,571,565,562,556,553,547,541,538,532,526,523,517,511,508,502,496,493,487,481,478,472,466,463,457,451,448,448,448,448,448,448,448,448,448,445,445,445,445,445,448,448,451
2176,2173,2170,2167,2164,2161,2158,2155,2155,2152,2149,2143,2137,2137,2137,2137,2134,2134,2134,2134,2134,2131,2131,2131,2134,2137,2140,2143,2146,2149,2152,2155,2158,2161,2164,2170,2173,2176,2182,2185,2188,2194,2197,2200,2206,2209,2212,2218,2221,2224,2230,2236,2242,2251,2254,2254,2251,2248,2242,2236,2230,2224,2221,2215,2212,2206,2203,2200,2197,2191,2188,2185,2182,2179,2179,2176,2176,2173,2170,2170,2167,2164,2161,2158,2155,2152,2149,2146,2143,2140,2137,2137,2134,2131,2128,2125,2125,2122,2122,2119,2116,2116,2113,2110,2107,2107,2104,2101,2098,2098,2095,2092,2089,2089,2086,2083,2080,2077,2071,2065,2059,2056,2050,2044,2041,2038,2035,2032,2029,2026,2023,2023,2020,2020,2020,2017,2017,2014,2014,2008,2005,1999,1996,1990,1987,1981,1975,1972,1966,1963,1957,1954,1948,1945,1939,1933,1930,1924,1921,1915,1915,1912,1909,1906,1906,1903,1900,1897,1894,1894,1891,1888,1888,1888,1888,1888,1888,1888,1891,1888,1882,1879,1876,1870,1867,1864,1858,1855,1855,1852,1852,1852,1849,1849,1849,1849,1846,1846,1846,1843,1843,1840,1840,1837,1837,1834,1831,1831,1828,1828,1828,1828,1825,1825,1825,1828,1828,1828,1828,1831,1831,1828,1828,1825,1819,1819,1816,1813,1813,1810,1810,1807,1807,1804,1804,1801,1798,1798,1795,1795,1792,1786,1783,1780,1777,1771,1768,1765,1762,1756,1753,1750,1744,1741,1738,1732,1729,1726,1720,1717,1714,1711,1705,1702,1699,1693,1690,1687,1681,1678,1672,1669,1663,1657,1654,1648,1645,1639,1633,1630,1624,1621,1615,1609,1606,1603,1600,1597,1591,1588,1585,1582,1576,1573,1570,1564,1561,1555,1552,1549,1543,1540,1540,1537,1534,1534,1531,1528,1525,1522,1516,1513,1510,1504,1501,1498,1495,1492,1489,1489,1486,1486,1483,1480,1480,1477,1474,1474,1471,1468,1468,1465,1462,1462,1459,1456,1456,1453,1450,1450,1450,1447,1447,1447,1444,1444,1444,1441,1441,1441,1438,1438,1435,1435,1435,1432,1432,1432,1429,1429,1426,1423,1420,1417,1411,1408,1405,1402,1396,1393,1390,1387,1381,1378,1375,1372,1366,1363,1360,1357,1351,1351,1348,1342,1339,1336,1333,1330,1327,1324,1321,1318,1315,1312,1309,1306,1300,1297,1294,1288,1285,1279,1276,1273,1270,1270,1270,1267,1264,1261,1258,1255,1249,1246,1243,1240,1234,1231,1228,1222,1219,1216,1210,1207,1204,1198,1195,1192,1186,1183,1180,1177,1171,1168,1165,1159,1156,1153,1147,1144,1141,1135,1132,1129,1126,1123,1120,1117,1114,1114,1111,1111,1111,1108,1108,1108,1108,1108,1105,1105,1105,1105,1102,1102,1102,1102,1099,1099,1099,1096,1093,1090,1090,1087,1084,1081,1078,1075,1075,1072,1069,1066,1066,1063,1063,1060,1060,1057,1057,1054,1051,1048,1045,1042,1039,1036,1033,1030,1027,1024,1021,1018,1015,1012,1009,1006,1003,1000,997,991,988,985,982,976,973,970,964,961,958,952,949,946,943,937,931,925,919,916,913,910,907,904,901,898,895,892,886,883,880,874,871,868,862,856,850,844,838,832,826,820,814,808,802,796,790,781,775,769,766,760,754,748,742,736,730,727,721,715,709,703,700,694,691,685,682,679,673,670,667,661,658,655,649,646,640,637,634,628,622,619,613,607,601,598,592,586,583,577,571,568,562,556,553,547,541,538,532,526,523,517,511,508,502,496,493,487,481,478,472,466,463,457,451,448,448,448,448,448,448,448,448,448,445,445,445,445,445,448,448,448
2167,2164,2161,2158,2155,2152,2149,2146,2143,2140,2137,2134,2131,2131,2131,2128,2128,2128,2128,2128,2125,2125,2125,2125,2128,2131,2134,2137,2140,2143,2146,2149,2152,2155,2158,2164,2167,2170,2176,2179,2182,2188,2191,2194,2200,2203,2206,2212,2215,2218,2224,2230,2236,2245,2245,2245,2245,2245,2242,2236,2230,2227,2224,2218,2215,2212,2209,2203,2200,2197,2194,2188,2185,2182,2179,2176,2176,2173,2173,2170,2167,2164,2161,2158,2155,2152,2149,2146,2143,2143,2140,2137,2134,2131,2131,2128,2125,2125,2122,2122,2119,2116,2116,2113,2110,2110,2107,2104,2101,2101,2098,2095,2092,2092,2089,2086,2083,2080,2074,2068,2062,2059,2053,2047,2044,2038,2038,2035,2032,2029,2026,2026,2023,2023,2020,2020,2017,2017,2014,2008,2005,1999,1996,1990,1987,1981,1978,1972,1969,1963,1957,1954,1948,1945,1939,1936,1930,1927,1921,1915,1912,1912,1909,1906,1903,1900,1900,1897,1894,1891,1891,1891,1891,1891,1891,1891,1891,1891,1891,1888,1885,1882,1876,1873,1867,1864,1861,1855,1852,1852,1849,1849,1849,1849,1846,1846,1846,1843,1843,1843,1840,1840,1837,1837,1834,1831,1831,1828,1825,1825,1825,1825,1825,1822,1822,1822,1825,1825,1825,1828,1828,1825,1825,1822,1819,1816,1810,1810,1807,1807,1804,1804,1801,1798,1798,1795,1795,1792,1792,1789,1786,1783,1780,1777,1774,1768,1765,1762,1756,1753,1750,1744,1741,1738,1735,1729,1726,1723,1717,1714,1711,1705,1702,1699,1693,1690,1687,1681,1678,1672,1669,1663,1660,1654,1648,1645,1639,1636,1630,1624,1621,1615,1612,1606,1603,1597,1594,1591,1588,1585,1579,1576,1573,1567,1564,1561,1555,1552,1546,1543,1540,1534,1531,1531,1528,1528,1525,1522,1519,1513,1510,1507,1501,1498,1495,1492,1489,1486,1483,1483,1480,1477,1477,1474,1471,1471,1468,1465,1465,1462,1462,1459,1456,1456,1453,1450,1450,1447,1444,1444,1441,1441,1438,1438,1438,1435,1435,1435,1432,1432,1429,1429,1429,1426,1426,1426,1423,1423,1420,1420,1420,1417,1414,1408,1405,1402,1399,1393,1390,1387,1384,1378,1375,1372,1369,1363,1360,1357,1351,1348,1345,1342,1342,1339,1336,1333,1330,1327,1321,1318,1315,1312,1309,1306,1303,1300,1297,1291,1288,1282,1279,1273,1270,1267,1264,1264,1264,1264,1258,1255,1252,1249,1246,1243,1240,1237,1234,1228,1225,1222,1216,1213,1210,1204,1201,1198,1192,1189,1186,1180,1177,1174,1168,1165,1162,1156,1153,1150,1144,1141,1138,1135,1129,1126,1123,1120,1117,1114,1111,1111,1108,1108,1105,1105,1105,1102,1102,1102,1102,1099,1099,1099,1099,1096,1096,1096,1096,1093,1093,1093,1090,1087,1084,1084,1081,1078,1075,1072,1069,1069,1066,1063,1063,1060,1060,1057,1057,1054,1054,1051,1048,1045,1042,1039,1036,1033,1030,1027,1024,1021,1018,1015,1012,1009,1006,1003,1000,997,994,991,988,982,979,976,970,967,964,958,955,952,946,943,940,934,928,925,919,916,913,910,907,904,901,898,895,892,889,883,880,877,871,868,862,856,850,844,838,832,826,820,814,808,802,796,790,781,775,769,763,760,754,748,742,736,730,727,721,715,709,703,697,694,688,685,682,676,673,670,664,661,658,652,649,646,640,637,634,628,622,619,613,607,601,598,592,586,583,577,571,568,562,556,553,547,541,538,532,529,523,517,514,508,502,499,493,487,484,478,472,469,463,457,454,448,448,448,448,448,448,448,448,448,445,445,445,445,448,448,448,448
2161,2155,2152,2149,2146,2143,2140,2137,2134,2131,2128,2125,2125,2125,2122,2122,2122,2122,2122,2122,2122,2119,2119,2119,2122,2125,2128,2131,2134,2137,2140,2143,2146,2149,2155,2158,2161,2167,2170,2173,2179,2182,2185,2191,2194,2197,2203,2206,2209,2215,2218,2224,2230,2236,2239,2239,2236,2236,2236,2236,2233,2230,2227,2224,2221,2215,2212,2209,2206,2200,2197,2194,2191,2185,2182,2179,2176,2173,2173,2170,2167,2164,2161,2158,2155,2152,2152,2149,2146,2143,2140,2137,2137,2134,2131,2131,2128,2128,2125,2125,2122,2119,2119,2116,2113,2113,2110,2107,2104,2104,2101,2098,2095,2095,2092,2089,2086,2086,2080,2074,2068,2062,2056,2050,2047,2041,2041,2038,2035,2032,2029,2029,2026,2026,2023,2023,2020,2020,2014,2011,2005,2002,1996,1990,1987,1981,1978,1972,1969,1963,1960,1954,1951,1945,1939,1936,1930,1927,1921,1918,1912,1909,1909,1906,1903,1900,1897,1897,1894,1891,1891,1891,1891,1891,1891,1891,1891,1891,1891,1891,1885,1882,1879,1873,1870,1864,1861,1858,1852,1849,1849,1849,1846,1846,1846,1843,1843,1843,1843,1840,1840,1837,1834,1834,1831,1831,1828,1825,1825,1822,1822,1822,1822,1819,1819,1819,1819,1822,1822,1825,1825,1822,1822,1822,1819,1813,1810,1804,1804,1801,1798,1798,1795,1795,1792,1792,1789,1786,1786,1783,1783,1780,1777,1774,1771,1765,1762,1759,1753,1750,1747,1741,1738,1735,1729,1726,1723,1720,1714,1711,1708,1702,1699,1696,1690,1687,1684,1678,1675,1669,1663,1660,1654,1651,1645,1642,1636,1630,1627,1621,1618,1612,1606,1603,1597,1594,1591,1585,1582,1579,1576,1573,1567,1564,1558,1555,1552,1546,1543,1537,1534,1531,1528,1525,1522,1522,1519,1516,1510,1507,1504,1501,1495,1492,1489,1486,1483,1480,1477,1477,1474,1471,1471,1468,1465,1465,1462,1459,1459,1456,1453,1453,1450,1447,1447,1444,1441,1441,1438,1438,1435,1432,1432,1429,1429,1429,1426,1426,1423,1423,1423,1420,1420,1420,1417,1417,1414,1414,1414,1411,1411,1408,1405,1402,1399,1393,1390,1387,1384,1378,1375,1372,1369,1363,1360,1357,1354,1348,1345,1342,1339,1336,1333,1333,1330,1327,1324,1321,1318,1315,1312,1309,1303,1300,1297,1294,1291,1285,1282,1276,1273,1267,1264,1261,1258,1255,1258,1258,1255,1252,1249,1246,1243,1240,1237,1234,1228,1225,1222,1219,1216,1210,1207,1204,1198,1195,1192,1186,1183,1180,1174,1171,1168,1162,1159,1156,1150,1147,1144,1138,1135,1132,1129,1126,1123,1120,1117,1114,1108,1108,1105,1105,1102,1102,1102,1099,1099,1096,1096,1096,1093,1093,1093,1093,1093,1090,1090,1090,1090,1087,1087,1084,1081,1078,1078,1075,1072,1069,1066,1066,1063,1063,1060,1057,1057,1054,1054,1051,1051,1048,1048,1045,1042,1039,1036,1033,1030,1027,1024,1021,1018,1015,1012,1009,1006,1003,1000,997,994,988,985,982,979,973,970,967,961,958,955,949,946,943,937,934,928,925,919,916,913,910,907,904,901,898,895,892,889,883,880,877,871,868,865,856,850,844,838,832,826,820,814,808,802,796,790,784,775,769,763,757,754,748,742,736,730,727,721,715,709,703,697,694,688,685,682,676,673,670,664,661,658,652,649,646,640,637,631,628,622,619,613,607,601,598,592,586,583,577,574,568,562,559,553,547,544,538,532,529,523,517,514,508,502,499,493,487,484,478,472,469,463,457,454,448,448,448,448,448,448,448,448,448,445,445,445,445,448,448,448,448
2155,2152,2149,2146,2143,2140,2134,2131,2128,2125,2122,2119,2119,2119,2119,2116,2116,2116,2116,2116,2116,2116,2113,2116,2116,2119,2122,2125,2128,2131,2134,2137,2140,2143,2149,2152,2155,2161,2164,2167,2173,2176,2179,2185,2188,2191,2197,2200,2203,2209,2212,2218,2224,2230,2230,2230,2230,2230,2236,2239,2239,2233,2230,2227,2224,2218,2215,2212,2209,2203,2200,2197,2194,2191,2185,2182,2179,2176,2173,2170,2167,2164,2161,2161,2158,2155,2152,2149,2146,2146,2143,2140,2137,2137,2134,2131,2131,2131,2128,2125,2125,2122,2119,2119,2116,2113,2113,2110,2107,2107,2104,2101,2098,2098,2095,2092,2089,2089,2083,2077,2071,2065,2059,2053,2050,2044,2041,2041,2038,2035,2032,2029,2029,2026,2026,2023,2023,2020,2014,2011,2005,2002,1996,1993,1987,1984,1978,1972,1969,1963,1960,1954,1951,1945,1942,1936,1930,1927,1921,1918,1912,1909,1906,1906,1903,1900,1897,1894,1894,1891,1894,1894,1894,1894,1894,1894,1894,1894,1894,1891,1888,1882,1879,1876,1870,1867,1861,1858,1855,1849,1846,1846,1846,1843,1843,1843,1843,1840,1840,1840,1837,1834,1834,1831,1831,1828,1825,1825,1822,1819,1819,1819,1819,1819,1816,1816,1816,1819,1819,1822,1822,1819,1819,1819,1816,1813,1810,1804,1801,1795,1795,1792,1792,1789,1786,1786,1783,1783,1780,1780,1777,1774,1774,1771,1765,1762,1759,1753,1750,1747,1744,1738,1735,1732,1726,1723,1720,1714,1711,1708,1702,1699,1696,1690,1687,1684,1678,1675,1669,1666,1660,1657,1651,1645,1642,1636,1633,1627,1621,1618,1612,1609,1603,1597,1594,1588,1585,1582,1579,1573,1570,1567,1564,1558,1555,1549,1546,1543,1537,1534,1531,1525,1522,1519,1516,1513,1513,1507,1504,1501,1498,1492,1489,1486,1483,1480,1477,1474,1471,1471,1468,1465,1465,1462,1459,1459,1456,1453,1453,1450,1447,1447,1444,1441,1441,1438,1438,1435,1432,1432,1429,1429,1426,1423,1420,1420,1417,1417,1417,1414,1414,1414,1411,1411,1408,1408,1408,1405,1405,1405,1402,1402,1399,1396,1390,1387,1384,1381,1375,1372,1369,1366,1360,1357,1354,1351,1345,1342,1339,1336,1333,1330,1327,1324,1321,1321,1318,1315,1312,1309,1306,1303,1300,1297,1294,1288,1282,1279,1273,1270,1264,1261,1255,1252,1252,1249,1249,1252,1252,1249,1246,1240,1237,1234,1231,1228,1225,1222,1219,1216,1213,1210,1204,1201,1198,1192,1189,1186,1180,1177,1174,1168,1165,1162,1156,1153,1150,1144,1141,1138,1135,1132,1129,1123,1120,1117,1114,1111,1108,1105,1102,1102,1099,1099,1096,1096,1096,1093,1093,1090,1090,1090,1087,1087,1087,1087,1084,1084,1084,1084,1081,1081,1078,1075,1072,1072,1069,1066,1063,1063,1060,1060,1057,1054,1054,1051,1051,1048,1048,1045,1045,1042,1039,1036,1033,1030,1027,1024,1021,1018,1015,1012,1009,1006,1003,1000,997,994,991,988,985,979,976,973,967,964,961,955,952,949,943,940,937,931,928,925,922,919,916,913,910,907,901,898,895,892,889,883,880,877,871,868,865,859,850,844,838,832,826,820,814,808,802,796,790,784,775,769,763,757,754,748,742,736,730,724,721,715,709,703,697,694,688,685,679,676,673,667,664,661,655,652,649,643,640,637,631,628,622,619,613,607,604,598,592,589,583,577,574,568,562,559,553,547,544,538,532,529,523,517,514,508,502,499,493,487,484,478,472,469,463,457,454,448,448,448,448,448,448,448,448,448,445,445,445,448,448,448,448,448
2149,2146,2143,2140,2137,2134,2131,2128,2125,2122,2116,2113,2113,2113,2113,2113,2110,2110,2110,2110,2110,2110,2110,2110,2113,2113,2116,2119,2122,2125,2128,2131,2134,2140,2143,2146,2152,2155,2158,2164,2167,2170,2176,2179,2182,2188,2191,2194,2200,2203,2206,2212,2218,2221,2221,2221,2224,2233,2239,2242,2242,2236,2233,2230,2227,2221,2218,2215,2212,2209,2203,2200,2197,2194,2188,2185,2182,2179,2176,2170,2167,2167,2164,2161,2158,2155,2155,2152,2149,2146,2143,2140,2140,2137,2137,2134,2134,2134,2131,2128,2128,2125,2122,2122,2119,2116,2113,2113,2110,2107,2107,2104,2101,2101,2098,2095,2092,2092,2089,2083,2077,2071,2065,2059,2053,2050,2044,2044,2041,2038,2035,2032,2032,2029,2029,2026,2026,2020,2017,2011,2005,2002,1996,1993,1987,1984,1978,1975,1969,1966,1960,1954,1951,1945,1942,1936,1933,1927,1924,1918,1912,1909,1906,1903,1900,1900,1897,1894,1894,1894,1894,1894,1894,1894,1894,1894,1894,1894,1894,1891,1888,1885,1879,1876,1873,1867,1864,1861,1855,1852,1846,1843,1843,1843,1840,1840,1840,1840,1837,1837,1834,1834,1831,1828,1828,1825,1825,1822,1819,1819,1816,1816,1816,1816,1816,1813,1813,1816,1819,1819,1819,1816,1816,1816,1813,1813,1810,1804,1801,1795,1792,1786,1786,1783,1783,1780,1780,1777,1774,1774,1771,1771,1768,1768,1762,1759,1756,1750,1747,1744,1738,1735,1732,1729,1723,1720,1717,1711,1708,1705,1699,1696,1693,1687,1684,1681,1675,1672,1666,1660,1657,1651,1648,1642,1636,1633,1627,1624,1618,1612,1609,1603,1600,1594,1588,1585,1582,1576,1573,1570,1567,1561,1558,1555,1549,1546,1540,1537,1534,1528,1525,1522,1516,1513,1510,1507,1507,1501,1498,1495,1489,1486,1483,1480,1477,1474,1471,1468,1465,1465,1462,1459,1459,1456,1453,1453,1450,1447,1447,1444,1444,1441,1438,1438,1435,1432,1432,1429,1426,1426,1423,1423,1420,1417,1414,1411,1411,1408,1408,1408,1405,1405,1402,1402,1402,1399,1399,1399,1396,1396,1393,1393,1393,1387,1384,1381,1378,1372,1369,1366,1360,1357,1354,1351,1345,1342,1339,1336,1330,1327,1324,1321,1321,1318,1315,1312,1312,1309,1306,1303,1300,1297,1294,1291,1285,1282,1276,1273,1267,1264,1258,1255,1249,1246,1243,1243,1240,1243,1246,1243,1240,1237,1234,1231,1228,1225,1222,1219,1216,1210,1207,1204,1201,1198,1195,1192,1186,1183,1180,1174,1171,1168,1162,1159,1156,1150,1147,1144,1138,1135,1132,1129,1126,1123,1120,1117,1114,1111,1108,1102,1099,1099,1096,1096,1093,1093,1090,1090,1090,1087,1087,1084,1084,1081,1081,1081,1081,1078,1078,1078,1078,1078,1075,1072,1069,1066,1066,1063,1060,1060,1057,1057,1054,1051,1051,1048,1048,1045,1045,1042,1042,1039,1039,1036,1033,1030,1027,1024,1021,1018,1015,1012,1009,1006,1003,1000,997,994,991,985,982,979,976,970,967,964,958,955,952,946,943,940,934,931,928,925,922,919,916,910,907,904,901,898,895,892,889,886,880,877,874,868,865,859,850,844,838,832,826,820,814,808,802,796,790,781,775,769,763,757,754,748,742,736,730,724,721,715,709,703,697,691,688,685,679,676,673,667,664,661,655,652,649,643,640,637,631,628,622,619,613,607,604,598,592,589,583,577,574,568,562,559,553,550,544,538,535,529,523,520,514,508,505,499,493,490,484,478,475,469,463,457,454,448,448,448,448,448,448,448,448,448,445,445,445,448,448,448,448,448
2143,2140,2137,2134,2131,2128,2125,2122,2119,2116,2110,2110,2107,2107,2107,2107,2107,2104,2104,2104,2104,2104,2104,2107,2107,2110,2113,2113,2116,2119,2122,2125,2128,2134,2137,2140,2146,2149,2152,2158,2161,2164,2170,2173,2176,2182,2185,2188,2194,2197,2200,2206,2212,2212,2212,2221,2227,2236,2242,2245,2242,2239,2236,2233,2230,2227,2221,2218,2215,2212,2206,2203,2200,2197,2191,2188,2185,2182,2179,2173,2170,2167,2164,2161,2161,2158,2155,2152,2149,2146,2146,2143,2143,2140,2140,2137,2137,2134,2134,2131,2128,2128,2125,2122,2122,2119,2116,2116,2113,2110,2110,2107,2104,2101,2101,2098,2095,2092,2092,2086,2080,2074,2068,2062,2059,2053,2050,2047,2044,2041,2038,2035,2035,2032,2032,2029,2026,2020,2017,2011,2008,2002,1999,1993,1987,1984,1978,1975,1969,1966,1960,1957,1951,1945,1942,1936,1933,1927,1924,1918,1915,1909,1906,1903,1900,1897,1897,1894,1894,1894,1897,1897,1897,1897,1897,1897,1897,1897,1897,1894,1891,1885,1882,1876,1873,1870,1864,1861,1858,1852,1849,1843,1840,1840,1840,1840,1837,1837,1837,1834,1834,1831,1828,1828,1825,1825,1822,1819,1819,1816,1813,1813,1813,1813,1813,1810,1810,1813,1816,1816,1816,1813,1813,1813,1810,1810,1807,1804,1798,1795,1789,1786,1783,1780,1777,1777,1774,1771,1771,1768,1768,1765,1762,1762,1759,1756,1753,1747,1744,1741,1735,1732,1729,1723,1720,1717,1711,1708,1705,1702,1696,1693,1690,1684,1681,1675,1672,1666,1663,1657,1651,1648,1642,1639,1633,1630,1624,1618,1615,1609,1606,1600,1594,1591,1585,1582,1576,1573,1570,1564,1561,1558,1555,1549,1546,1540,1537,1531,1528,1525,1519,1516,1513,1507,1504,1501,1498,1495,1492,1489,1486,1483,1480,1477,1471,1468,1465,1462,1459,1456,1456,1453,1453,1450,1447,1447,1444,1444,1441,1438,1438,1435,1435,1432,1429,1429,1426,1423,1423,1420,1420,1417,1414,1411,1408,1405,1402,1402,1399,1399,1396,1396,1396,1393,1393,1393,1390,1390,1387,1387,1387,1384,1384,1381,1378,1372,1369,1366,1363,1357,1354,1351,1348,1342,1339,1336,1333,1327,1324,1321,1318,1315,1312,1309,1309,1306,1303,1303,1300,1297,1294,1291,1288,1285,1279,1276,1270,1267,1261,1258,1252,1249,1243,1240,1237,1234,1234,1237,1237,1240,1237,1234,1231,1228,1225,1219,1216,1213,1210,1207,1204,1201,1198,1195,1192,1189,1183,1180,1177,1171,1168,1165,1159,1156,1153,1150,1144,1141,1138,1135,1132,1129,1126,1120,1117,1114,1111,1108,1105,1102,1099,1096,1093,1093,1090,1090,1087,1087,1087,1084,1084,1081,1081,1078,1078,1075,1075,1075,1075,1072,1072,1072,1072,1069,1066,1063,1060,1060,1057,1057,1054,1054,1051,1051,1048,1045,1045,1042,1042,1039,1039,1036,1036,1033,1030,1027,1024,1021,1018,1015,1012,1009,1006,1003,1000,997,994,991,988,985,982,976,973,970,964,961,958,952,949,946,940,937,934,931,928,925,919,916,913,910,907,904,901,898,895,892,889,883,880,877,874,868,865,859,853,844,838,832,826,820,814,808,802,793,787,781,775,769,763,757,751,748,742,736,730,724,721,715,709,703,697,691,688,682,679,676,670,667,664,658,655,652,646,643,640,634,631,628,622,619,613,607,604,598,592,589,583,580,574,568,565,559,553,550,544,538,535,529,523,520,514,508,505,499,493,490,484,478,475,469,463,460,454,448,448,448,448,448,448,448,448,445,445,445,445,445,448,448,448,448
