1334,1331,1328,1325,1325,1322,1319,1316,1316,1319,1319,1319,1319,1319,1319,1316,1319,1319,1319,1319,1319,1319,1319,1319,1322,1322,1325,1328,1331,1331,1331,1331,1331,1331,1331,1331,1334,1334,1334,1334,1337,1337,1337,1340,1340,1340,1343,1343,1346,1346,1346,1349,1346,1346,1343,1343,1343,1340,1340,1337,1337,1337,1334,1334,1331,1331,1331,1328,1328,1328,1325,1325,1325,1322,1322,1322,1319,1319,1319,1316,1316,1316,1310,1307,1301,1298,1295,1289,1286,1283,1277,1274,1268,1265,1262,1262,1268,1271,1277,1283,1289,1292,1295,1298,1298,1301,1301,1304,1304,1304,1304,1301,1301,1301,1301,1301,1301,1301,1301,1304,1304,1304,1304,1304,1307,1310,1310,1313,1316,1319,1325,1322,1322,1322,1319,1316,1313,1310,1310,1310,1310,1307,1307,1307,1307,1307,1307,1307,1307,1307,1304,1304,1304,1304,1301,1298,1298,1295,1295,1292,1289,1289,1286,1286,1283,1283,1280,1280,1277,1277,1277,1277,1274,1274,1274,1271,1271,1271,1268,1268,1268,1268,1271,1271,1274,1274,1274,1271,1271,1268,1268,1265,1262,1259,1256,1253,1250,1247,1244,1241,1238,1235,1229,1226,1223,1217,1214,1208,1199,1193,1184,1175,1169,1163,1157,1151,1145,1139,1133,1127,1124,1118,1115,1109,1103,1100,1094,1088,1085,1079,1073,1070,1064,1058,1055,1052,1049,1046,1040,1037,1034,1031,1025,1022,1019,1013,1010,1007,1004,998,1001,1007,1010,1016,1022,1025,1031,1037,1040,1046,1052,1055,1061,1067,1070,1079,1085,1094,1097,1106,1115,1127,1136,1148,1157,1166,1178,1187,1199,1208,1220,1229,1238,1244,1250,1259,1265,1274,1280,1289,1295,1304,1310,1319,1325,1334,1340,1346,1352,1358,1361,1367,1373,1379,1382,1388,1394,1400,1406,1412,1418,1424,1433,1442,1451,1457,1466,1472,1478,1481,1487,1493,1496,1502,1505,1511,1517,1520,1526,1535,1538,1544,1550,1556,1562,1568,1577,1583,1589,1598,1604,1613,1622,1631,1640,1649,1658,1667,1673,1676,1682,1685,1691,1694,1700,1703,1706,1709,1712,1715,1718,1724,1727,1730,1733,1733,1727,1724,1721,1718,1715,1712,1706,1706,1706,1703,1703,1703,1700,1700,1697,1697,1697,1694,1691,1685,1682,1676,1670,1664,1661,1661,1658,1658,1658,1655,1655,1655,1652,1652,1652,1649,1649,1646,1646,1643,1640,1637,1634,1631,1625,1622,1628,1634,1643,1652,1661,1673,1682,1691,1700,1706,1709,1712,1715,1718,1721,1721,1724,1727,1730,1733,1736,1739,1742,1742,1739,1736,1733,1730,1727,1727,1721,1718,1715,1718,1721,1724,1724,1727,1730,1733,1736,1739,1745,1751,1754,1760,1760,1763,1766,1769,1772,1775,1775,1778,1778,1781,1784,1784,1784,1784,1784,1784,1784,1784,1781,1775,1766,1760,1754,1748,1742,1742,1739,1736,1736,1733,1733,1730,1730,1730,1727,1727,1727,1727,1730,1730,1730,1730,1733,1733,1733,1733,1736,1736,1736,1736,1736,1739,1742,1742,1745,1748,1748,1751,1754,1754,1757,1760,1760,1763,1766,1766,1769,1772,1775,1775,1778,1784,1787,1790,1796,1799,1802,1808,1814,1820,1829,1835,1841,1850,1853,1859,1862,1862,1859,1859,1856,1856,1853,1853,1853,1850,1847,1841,1838,1832,1826,1823,1820,1814,1811,1808,1805,1799,1796,1793,1790,1784,1778,1772,1763,1757,1751,1742,1736,1730,1721,1715,1706,1700,1688,1679,1670,1664,1658,1646,1634,1619,1607,1592,1580,1565,1553,1538,1526,1511,1499,1484,1472,1457,1442,1433,1424,1412,1403,1394,1382,1373,1364,1352,1343,1334,1325,1313,1304,1295,1280,1265,1250,1235,1220,1205,1187,1172,1157,1142,1127,1112,1103,1097,1094,1088,1085,1079,1073
1331,1328,1325,1322,1319,1316,1316,1313,1313,1319,1319,1319,1319,1319,1319,1319,1319,1316,1316,1316,1316,1316,1316,1316,1319,1319,1319,1322,1325,1325,1325,1325,1325,1325,1328,1328,1328,1328,1331,1331,1331,1334,1334,1334,1337,1337,1340,1340,1343,1343,1343,1343,1343,1340,1340,1340,1337,1337,1334,1334,1334,1331,1331,1328,1328,1325,1322,1322,1322,1319,1319,1319,1316,1316,1316,1313,1313,1313,1310,1310,1310,1307,1304,1298,1295,1292,1286,1283,1280,1274,1271,1265,1262,1259,1256,1256,1262,1265,1271,1274,1280,1286,1289,1289,1292,1292,1295,1295,1295,1295,1295,1295,1295,1295,1295,1295,1295,1295,1295,1295,1298,1298,1298,1301,1301,1304,1307,1307,1310,1313,1319,1319,1316,1316,1313,1310,1310,1307,1307,1304,1304,1304,1304,1304,1304,1304,1301,1301,1301,1301,1301,1301,1298,1298,1295,1295,1292,1289,1289,1286,1286,1283,1280,1280,1277,1277,1274,1274,1271,1271,1271,1268,1268,1268,1268,1265,1265,1265,1262,1262,1262,1259,1262,1262,1265,1265,1268,1265,1265,1262,1262,1259,1256,1253,1250,1247,1244,1241,1238,1235,1232,1229,1226,1223,1217,1214,1208,1199,1190,1184,1178,1172,1166,1160,1154,1148,1142,1136,1130,1124,1118,1115,1109,1106,1100,1094,1091,1085,1079,1076,1070,1067,1061,1055,1052,1049,1043,1040,1037,1034,1028,1025,1022,1016,1013,1010,1007,1001,998,998,1004,1007,1013,1019,1022,1028,1034,1037,1043,1049,1052,1058,1061,1067,1073,1082,1088,1094,1100,1109,1118,1130,1139,1151,1160,1172,1181,1193,1202,1211,1223,1232,1238,1247,1253,1259,1268,1274,1283,1289,1298,1304,1313,1319,1328,1334,1337,1343,1349,1355,1361,1364,1370,1376,1382,1388,1394,1400,1403,1412,1418,1427,1436,1445,1451,1460,1466,1472,1478,1481,1487,1493,1496,1499,1505,1508,1514,1520,1526,1532,1538,1544,1550,1556,1562,1568,1574,1583,1592,1601,1610,1619,1628,1637,1646,1655,1664,1670,1673,1679,1682,1688,1691,1694,1700,1703,1709,1712,1715,1718,1721,1724,1727,1730,1733,1730,1724,1721,1718,1715,1712,1709,1706,1703,1700,1700,1700,1697,1697,1694,1694,1694,1691,1688,1685,1682,1679,1676,1670,1664,1661,1658,1658,1655,1655,1655,1652,1652,1652,1649,1649,1646,1646,1643,1643,1640,1637,1634,1631,1628,1622,1619,1622,1631,1640,1652,1661,1667,1676,1685,1691,1697,1700,1703,1706,1709,1712,1715,1718,1721,1724,1724,1727,1730,1733,1730,1730,1727,1727,1724,1721,1718,1715,1712,1715,1718,1721,1724,1724,1727,1730,1733,1733,1739,1742,1742,1745,1748,1751,1754,1757,1757,1760,1763,1766,1766,1769,1769,1772,1772,1775,1775,1775,1775,1775,1775,1769,1763,1754,1748,1742,1739,1736,1733,1733,1730,1727,1727,1724,1724,1724,1721,1721,1721,1721,1721,1724,1724,1724,1724,1727,1727,1727,1730,1730,1730,1730,1733,1733,1733,1736,1736,1739,1742,1742,1745,1748,1748,1751,1754,1757,1757,1760,1763,1763,1766,1769,1772,1775,1781,1784,1787,1793,1796,1799,1808,1814,1820,1826,1835,1841,1847,1853,1859,1859,1856,1856,1856,1853,1853,1850,1850,1847,1847,1844,1838,1835,1829,1826,1820,1814,1811,1808,1805,1799,1796,1793,1790,1787,1781,1775,1769,1763,1754,1748,1742,1736,1727,1721,1715,1706,1700,1691,1682,1673,1667,1661,1649,1634,1622,1607,1595,1580,1568,1553,1541,1526,1514,1499,1487,1472,1460,1445,1436,1424,1415,1406,1397,1385,1376,1367,1355,1346,1337,1325,1316,1307,1295,1280,1265,1250,1235,1220,1205,1190,1175,1160,1145,1133,1124,1115,1112,1106,1103,1097,1091,1079
1325,1322,1319,1316,1316,1313,1313,1313,1310,1316,1322,1322,1319,1319,1319,1319,1319,1319,1319,1319,1316,1316,1316,1316,1316,1316,1316,1316,1319,1319,1319,1319,1322,1322,1322,1325,1325,1325,1325,1328,1328,1328,1331,1331,1334,1334,1337,1337,1340,1340,1340,1340,1337,1337,1334,1334,1334,1331,1331,1328,1328,1328,1325,1322,1319,1316,1316,1313,1313,1313,1310,1310,1310,1310,1307,1307,1307,1304,1304,1304,1301,1301,1295,1292,1289,1283,1280,1277,1271,1268,1262,1259,1256,1253,1250,1250,1256,1259,1262,1268,1274,1280,1280,1283,1286,1286,1289,1286,1286,1286,1286,1286,1289,1289,1289,1289,1289,1289,1289,1289,1289,1292,1292,1295,1298,1298,1301,1301,1304,1307,1313,1313,1310,1310,1310,1307,1304,1304,1301,1301,1301,1301,1298,1298,1298,1298,1298,1298,1298,1298,1298,1295,1295,1292,1289,1289,1286,1286,1283,1280,1280,1277,1277,1274,1271,1271,1268,1268,1265,1265,1265,1262,1262,1262,1259,1259,1259,1259,1256,1256,1256,1253,1256,1259,1259,1259,1262,1259,1259,1256,1256,1253,1250,1247,1244,1241,1238,1235,1232,1229,1226,1223,1220,1217,1214,1208,1199,1193,1187,1181,1175,1169,1163,1157,1151,1142,1136,1130,1124,1121,1115,1109,1106,1100,1094,1091,1085,1082,1076,1070,1067,1061,1058,1052,1049,1046,1043,1037,1034,1031,1025,1022,1019,1016,1010,1007,1004,998,995,998,1004,1010,1013,1019,1025,1028,1034,1040,1043,1049,1055,1058,1064,1070,1079,1085,1088,1094,1103,1112,1124,1133,1142,1154,1163,1175,1184,1196,1205,1214,1226,1232,1241,1247,1253,1262,1268,1277,1283,1292,1298,1307,1313,1319,1325,1331,1337,1343,1346,1352,1358,1364,1367,1373,1379,1385,1391,1397,1403,1412,1421,1430,1439,1445,1454,1460,1466,1472,1475,1481,1487,1493,1496,1499,1502,1508,1514,1520,1526,1532,1538,1544,1550,1556,1562,1568,1580,1589,1598,1607,1616,1622,1631,1640,1649,1658,1667,1670,1673,1679,1682,1688,1691,1697,1700,1703,1709,1712,1715,1718,1721,1727,1730,1733,1730,1727,1721,1718,1715,1712,1709,1706,1703,1700,1697,1697,1694,1694,1691,1691,1691,1688,1688,1685,1682,1679,1676,1673,1667,1664,1658,1655,1655,1655,1652,1652,1652,1649,1649,1646,1646,1643,1643,1643,1640,1637,1634,1631,1628,1625,1619,1616,1619,1628,1637,1646,1655,1661,1670,1679,1685,1688,1694,1697,1700,1703,1706,1706,1709,1712,1715,1718,1721,1724,1724,1721,1718,1718,1715,1715,1712,1712,1709,1712,1715,1715,1718,1718,1721,1721,1724,1724,1727,1727,1730,1733,1736,1739,1739,1742,1745,1748,1751,1751,1754,1754,1757,1757,1760,1760,1763,1763,1763,1763,1763,1763,1757,1751,1742,1736,1733,1730,1730,1727,1724,1724,1721,1718,1718,1718,1715,1715,1715,1715,1715,1715,1715,1715,1715,1718,1718,1721,1721,1724,1724,1724,1727,1727,1727,1727,1730,1733,1733,1736,1739,1739,1742,1745,1745,1748,1751,1754,1754,1757,1760,1760,1766,1769,1772,1778,1781,1784,1787,1793,1799,1805,1814,1820,1826,1832,1841,1847,1853,1856,1856,1853,1853,1850,1850,1847,1847,1847,1844,1844,1841,1838,1832,1829,1823,1817,1814,1808,1805,1802,1796,1793,1790,1787,1781,1778,1769,1763,1757,1751,1745,1739,1733,1727,1721,1712,1706,1700,1691,1682,1676,1670,1661,1655,1640,1628,1613,1601,1586,1574,1559,1547,1532,1520,1505,1493,1478,1466,1454,1439,1427,1418,1409,1397,1388,1379,1370,1358,1349,1340,1328,1319,1310,1298,1283,1268,1253,1238,1223,1208,1193,1178,1163,1154,1148,1139,1130,1124,1121,1115,1109,1100,1088
1319,1319,1316,1313,1313,1313,1310,1310,1310,1313,1319,1322,1322,1322,1322,1319,1319,1319,1319,1319,1319,1319,1319,1316,1316,1316,1313,1313,1313,1313,1316,1316,1316,1319,1319,1319,1319,1322,1322,1322,1325,1325,1328,1331,1331,1331,1334,1334,1337,1337,1337,1334,1334,1331,1331,1331,1328,1328,1325,1325,1322,1322,1319,1319,1313,1310,1307,1307,1307,1304,1304,1304,1301,1301,1301,1298,1298,1298,1295,1295,1295,1292,1289,1286,1280,1277,1271,1268,1265,1259,1256,1253,1250,1247,1244,1244,1247,1253,1256,1262,1265,1271,1274,1277,1277,1280,1280,1280,1280,1280,1280,1280,1280,1283,1283,1283,1283,1283,1283,1283,1283,1286,1289,1289,1292,1292,1295,1298,1298,1304,1307,1307,1307,1304,1304,1301,1298,1298,1298,1298,1295,1295,1295,1295,1295,1295,1295,1292,1292,1292,1292,1289,1289,1286,1286,1283,1280,1280,1277,1277,1274,1271,1271,1268,1268,1265,1265,1262,1262,1259,1259,1256,1256,1256,1253,1253,1253,1250,1250,1250,1247,1247,1250,1253,1253,1253,1256,1256,1253,1250,1250,1247,1244,1241,1238,1235,1232,1229,1226,1223,1220,1217,1214,1211,1208,1202,1196,1190,1184,1178,1172,1166,1157,1151,1145,1139,1133,1127,1121,1115,1112,1106,1100,1097,1091,1085,1082,1076,1070,1067,1061,1058,1055,1049,1043,1040,1037,1037,1031,1028,1025,1019,1016,1013,1010,1004,1001,998,992,995,1001,1007,1016,1022,1025,1031,1034,1040,1046,1049,1055,1061,1067,1073,1079,1085,1088,1094,1106,1115,1127,1136,1148,1157,1169,1178,1187,1199,1208,1217,1226,1235,1241,1250,1256,1262,1271,1277,1286,1292,1301,1307,1310,1316,1322,1328,1334,1340,1346,1352,1355,1361,1367,1373,1379,1385,1391,1397,1406,1415,1424,1430,1439,1448,1454,1460,1466,1472,1475,1481,1487,1490,1490,1496,1502,1508,1514,1520,1526,1532,1538,1544,1550,1556,1565,1574,1583,1592,1601,1610,1619,1628,1637,1646,1655,1661,1667,1670,1676,1679,1685,1688,1691,1697,1700,1706,1709,1715,1718,1721,1724,1727,1730,1733,1727,1724,1718,1715,1712,1709,1706,1703,1700,1697,1694,1691,1691,1688,1688,1688,1685,1685,1682,1679,1676,1673,1670,1667,1664,1661,1658,1655,1652,1652,1652,1649,1649,1646,1646,1643,1643,1643,1640,1640,1637,1634,1631,1628,1625,1619,1616,1613,1613,1622,1631,1640,1649,1655,1664,1670,1676,1679,1685,1688,1691,1694,1697,1700,1703,1706,1706,1709,1712,1715,1712,1712,1709,1709,1706,1706,1703,1703,1703,1703,1706,1706,1709,1709,1712,1712,1712,1715,1715,1718,1721,1721,1724,1727,1730,1733,1736,1736,1739,1739,1742,1742,1745,1745,1748,1748,1751,1754,1754,1754,1754,1751,1745,1739,1730,1727,1724,1724,1721,1718,1718,1715,1712,1712,1712,1709,1709,1709,1709,1709,1709,1709,1709,1706,1706,1709,1709,1712,1712,1712,1715,1715,1718,1718,1721,1724,1724,1727,1730,1730,1733,1736,1736,1739,1742,1745,1745,1748,1751,1751,1754,1757,1763,1766,1769,1772,1778,1781,1784,1790,1799,1805,1811,1820,1826,1832,1841,1847,1853,1853,1850,1850,1850,1847,1847,1844,1844,1841,1841,1841,1838,1835,1829,1826,1820,1817,1811,1805,1802,1799,1793,1790,1787,1784,1778,1772,1766,1760,1754,1748,1742,1733,1727,1721,1715,1709,1703,1697,1691,1682,1676,1670,1664,1655,1646,1634,1619,1607,1592,1580,1565,1553,1538,1526,1511,1499,1484,1472,1460,1448,1436,1424,1412,1400,1391,1382,1370,1361,1352,1340,1331,1322,1313,1301,1286,1271,1256,1241,1226,1211,1196,1181,1178,1169,1160,1154,1145,1139,1133,1127,1118,1106,1094
1316,1313,1313,1313,1310,1310,1310,1307,1307,1310,1316,1322,1322,1322,1322,1322,1322,1322,1319,1319,1319,1316,1313,1313,1310,1307,1307,1307,1310,1310,1310,1313,1313,1313,1313,1316,1316,1316,1316,1319,1322,1322,1325,1328,1328,1328,1331,1331,1334,1331,1331,1331,1328,1328,1328,1325,1325,1322,1322,1319,1316,1316,1313,1313,1307,1304,1301,1301,1298,1298,1298,1295,1295,1295,1292,1292,1292,1289,1289,1289,1286,1286,1283,1277,1274,1268,1265,1262,1256,1253,1250,1247,1244,1241,1238,1238,1241,1247,1250,1253,1259,1265,1268,1268,1271,1274,1274,1274,1274,1274,1274,1274,1274,1274,1277,1277,1277,1277,1277,1277,1277,1280,1283,1283,1286,1289,1289,1292,1295,1298,1301,1304,1301,1301,1298,1298,1295,1295,1292,1292,1292,1292,1292,1289,1289,1289,1289,1289,1289,1289,1286,1283,1283,1280,1280,1277,1274,1274,1271,1271,1268,1268,1265,1262,1262,1259,1259,1256,1256,1253,1253,1250,1250,1250,1247,1247,1247,1244,1244,1244,1241,1241,1244,1247,1247,1247,1250,1250,1247,1247,1244,1241,1238,1235,1232,1229,1226,1223,1220,1217,1214,1211,1208,1205,1202,1196,1190,1184,1178,1172,1166,1160,1154,1148,1142,1136,1130,1124,1118,1112,1106,1100,1097,1091,1085,1082,1076,1073,1067,1064,1058,1055,1049,1043,1040,1037,1034,1031,1028,1025,1022,1019,1013,1010,1007,1004,998,995,992,992,1001,1007,1013,1019,1025,1031,1037,1043,1046,1052,1058,1061,1070,1076,1079,1085,1091,1100,1109,1118,1130,1139,1151,1160,1172,1181,1190,1202,1211,1220,1229,1235,1244,1250,1259,1265,1271,1280,1286,1292,1298,1304,1310,1313,1319,1325,1331,1337,1343,1349,1355,1358,1364,1370,1376,1382,1391,1400,1409,1415,1424,1433,1439,1448,1454,1460,1466,1472,1478,1481,1484,1487,1490,1496,1502,1508,1514,1517,1523,1529,1535,1541,1550,1559,1568,1577,1586,1595,1604,1616,1625,1631,1640,1649,1658,1664,1667,1670,1676,1679,1685,1688,1694,1697,1700,1706,1709,1715,1718,1721,1724,1730,1730,1730,1724,1721,1715,1712,1709,1706,1703,1700,1697,1694,1691,1688,1685,1685,1685,1682,1682,1682,1679,1676,1673,1670,1667,1664,1661,1658,1655,1652,1649,1649,1649,1646,1646,1643,1643,1643,1640,1640,1637,1637,1634,1631,1628,1622,1619,1616,1610,1607,1607,1616,1625,1634,1643,1649,1658,1664,1667,1673,1676,1682,1685,1688,1688,1691,1694,1697,1700,1703,1706,1703,1703,1700,1700,1697,1697,1694,1694,1694,1694,1697,1697,1697,1700,1700,1700,1703,1703,1706,1706,1709,1709,1712,1715,1718,1721,1721,1724,1724,1727,1727,1730,1730,1733,1736,1736,1739,1739,1742,1742,1742,1742,1739,1733,1727,1721,1721,1718,1715,1715,1712,1709,1709,1706,1706,1703,1703,1703,1703,1703,1706,1706,1706,1706,1706,1703,1700,1703,1703,1706,1709,1709,1712,1712,1715,1715,1718,1721,1721,1724,1727,1727,1730,1733,1736,1736,1739,1742,1742,1745,1748,1751,1754,1757,1763,1766,1769,1775,1778,1784,1790,1796,1805,1811,1817,1826,1832,1838,1844,1847,1850,1847,1847,1844,1844,1841,1841,1841,1838,1838,1835,1835,1832,1829,1823,1817,1814,1808,1805,1799,1793,1790,1787,1784,1778,1772,1766,1760,1754,1748,1742,1736,1730,1724,1718,1712,1706,1700,1694,1688,1682,1679,1670,1664,1658,1649,1640,1625,1613,1598,1586,1571,1559,1544,1532,1517,1505,1493,1481,1469,1454,1442,1430,1418,1406,1394,1385,1373,1364,1355,1343,1334,1325,1313,1304,1289,1274,1259,1244,1229,1214,1205,1199,1193,1184,1175,1166,1160,1151,1148,1139,1127,1112,1100
1313,1310,1310,1310,1307,1307,1307,1304,1304,1307,1313,1319,1322,1322,1322,1322,1319,1319,1316,1313,1310,1307,1307,1304,1301,1301,1304,1304,1304,1307,1307,1307,1307,1310,1310,1310,1310,1313,1313,1316,1319,1322,1322,1325,1325,1328,1328,1328,1328,1328,1328,1325,1325,1325,1322,1322,1319,1316,1316,1313,1310,1310,1307,1304,1301,1298,1292,1292,1292,1289,1289,1289,1286,1286,1286,1286,1283,1283,1283,1280,1280,1280,1274,1271,1265,1262,1259,1253,1250,1247,1241,1241,1238,1235,1232,1232,1235,1241,1244,1247,1253,1256,1259,1262,1265,1265,1268,1268,1268,1268,1268,1268,1268,1268,1268,1271,1271,1271,1271,1271,1274,1274,1277,1280,1280,1283,1286,1286,1289,1292,1295,1298,1295,1295,1292,1292,1292,1289,1289,1289,1289,1286,1286,1286,1286,1286,1286,1286,1283,1283,1280,1280,1277,1274,1274,1271,1271,1268,1265,1265,1262,1262,1259,1256,1256,1253,1253,1250,1250,1247,1247,1244,1244,1244,1241,1241,1241,1238,1238,1235,1235,1235,1238,1241,1241,1241,1244,1244,1241,1241,1238,1235,1232,1229,1226,1223,1220,1217,1214,1211,1208,1205,1202,1199,1196,1193,1187,1181,1175,1169,1163,1157,1151,1145,1139,1133,1127,1121,1112,1106,1100,1097,1091,1085,1082,1076,1073,1070,1064,1061,1055,1052,1046,1040,1034,1031,1028,1025,1022,1022,1019,1016,1013,1007,1004,1001,998,992,989,992,998,1004,1010,1019,1025,1031,1037,1043,1049,1052,1058,1064,1070,1076,1079,1085,1091,1103,1112,1124,1133,1145,1154,1163,1175,1184,1193,1205,1214,1223,1229,1238,1244,1253,1259,1268,1274,1280,1286,1289,1295,1301,1307,1313,1319,1325,1331,1337,1340,1346,1352,1358,1364,1370,1376,1385,1391,1400,1409,1418,1424,1433,1439,1448,1454,1460,1466,1472,1475,1478,1481,1484,1490,1496,1502,1505,1511,1517,1523,1529,1535,1541,1550,1562,1571,1580,1589,1601,1610,1619,1628,1637,1646,1655,1658,1664,1667,1673,1676,1682,1685,1688,1694,1697,1703,1706,1712,1715,1718,1724,1727,1730,1730,1727,1721,1718,1712,1709,1706,1703,1700,1697,1694,1691,1688,1685,1682,1682,1679,1679,1679,1676,1673,1670,1667,1664,1661,1658,1655,1652,1652,1649,1643,1643,1643,1643,1640,1640,1640,1640,1637,1637,1634,1634,1631,1628,1622,1619,1613,1610,1607,1601,1601,1610,1619,1628,1637,1643,1649,1655,1658,1664,1667,1673,1676,1679,1682,1685,1688,1691,1691,1694,1697,1694,1694,1691,1688,1688,1685,1685,1685,1685,1688,1688,1688,1691,1691,1691,1691,1694,1694,1694,1697,1697,1700,1700,1703,1706,1709,1709,1712,1712,1715,1718,1718,1721,1721,1724,1724,1727,1727,1730,1730,1733,1733,1727,1721,1718,1715,1712,1712,1709,1706,1706,1703,1700,1700,1697,1697,1700,1700,1700,1700,1700,1700,1700,1700,1700,1700,1700,1700,1700,1703,1703,1706,1706,1706,1709,1712,1715,1715,1718,1721,1721,1724,1727,1727,1730,1733,1736,1736,1739,1742,1745,1748,1751,1754,1760,1763,1766,1772,1775,1781,1790,1796,1802,1811,1817,1823,1832,1835,1841,1844,1844,1844,1841,1841,1841,1838,1838,1835,1835,1835,1832,1832,1829,1826,1820,1817,1811,1808,1802,1796,1793,1787,1784,1778,1775,1769,1763,1757,1751,1745,1739,1733,1724,1718,1712,1706,1700,1694,1685,1685,1682,1679,1673,1664,1658,1652,1643,1631,1619,1604,1592,1577,1565,1550,1538,1526,1514,1499,1487,1475,1463,1451,1439,1424,1412,1400,1388,1376,1367,1358,1346,1337,1328,1316,1307,1292,1277,1262,1247,1232,1226,1223,1214,1205,1199,1190,1181,1172,1166,1160,1145,1133,1121,1109
1310,1310,1307,1307,1307,1304,1304,1304,1301,1304,1310,1313,1319,1319,1316,1313,1313,1310,1307,1304,1301,1301,1298,1295,1298,1298,1298,1301,1301,1301,1301,1304,1304,1304,1304,1307,1307,1310,1313,1313,1316,1319,1322,1322,1325,1325,1325,1325,1325,1325,1322,1322,1319,1319,1316,1316,1313,1310,1310,1307,1307,1304,1304,1298,1295,1292,1286,1286,1283,1283,1283,1280,1280,1280,1277,1277,1277,1274,1274,1274,1271,1271,1268,1262,1259,1256,1250,1247,1241,1238,1235,1232,1232,1229,1226,1226,1229,1232,1238,1241,1247,1250,1253,1256,1256,1259,1262,1262,1262,1262,1262,1262,1262,1262,1262,1262,1265,1265,1265,1265,1268,1271,1271,1274,1277,1277,1280,1283,1283,1286,1289,1292,1292,1289,1289,1286,1286,1286,1286,1283,1283,1283,1283,1283,1283,1280,1280,1280,1280,1277,1274,1274,1271,1271,1268,1265,1265,1262,1262,1259,1256,1256,1253,1253,1250,1250,1247,1244,1244,1241,1241,1238,1238,1238,1235,1235,1235,1232,1232,1226,1229,1229,1232,1232,1235,1235,1238,1238,1235,1235,1232,1229,1226,1223,1220,1217,1214,1211,1208,1205,1202,1199,1196,1193,1190,1187,1181,1175,1169,1163,1157,1151,1145,1139,1133,1127,1121,1115,1109,1103,1097,1091,1088,1082,1079,1073,1070,1067,1061,1058,1052,1049,1043,1037,1031,1025,1022,1022,1019,1016,1013,1010,1007,1007,1001,998,995,992,986,989,995,1004,1010,1016,1022,1028,1037,1043,1049,1055,1061,1064,1070,1076,1082,1085,1094,1106,1115,1127,1136,1148,1157,1166,1178,1187,1196,1208,1217,1223,1232,1238,1247,1253,1259,1265,1271,1277,1283,1286,1292,1298,1304,1310,1316,1322,1328,1334,1340,1346,1349,1355,1361,1370,1376,1385,1394,1403,1409,1418,1424,1433,1442,1448,1454,1460,1466,1469,1472,1475,1478,1484,1490,1496,1499,1505,1511,1517,1523,1529,1535,1544,1553,1562,1574,1583,1592,1601,1613,1622,1631,1640,1649,1655,1661,1664,1667,1673,1676,1682,1685,1691,1694,1697,1703,1706,1712,1715,1721,1724,1727,1730,1727,1724,1718,1715,1709,1706,1703,1700,1697,1694,1691,1688,1685,1682,1679,1676,1676,1676,1673,1673,1670,1667,1664,1661,1658,1655,1652,1652,1652,1646,1640,1637,1637,1637,1637,1634,1634,1634,1634,1631,1631,1631,1625,1622,1616,1613,1607,1604,1601,1595,1595,1604,1613,1622,1631,1637,1643,1646,1652,1655,1661,1664,1670,1670,1673,1676,1679,1682,1685,1688,1685,1685,1682,1682,1679,1679,1676,1676,1676,1679,1679,1679,1679,1682,1682,1682,1685,1685,1685,1688,1688,1688,1691,1691,1694,1694,1697,1700,1700,1703,1703,1706,1706,1709,1709,1712,1712,1715,1715,1718,1721,1721,1721,1715,1712,1709,1709,1706,1703,1703,1700,1697,1697,1694,1694,1694,1694,1694,1694,1694,1694,1694,1694,1694,1694,1694,1694,1694,1697,1697,1697,1697,1700,1700,1703,1703,1706,1709,1712,1712,1715,1718,1718,1721,1724,1727,1727,1730,1733,1736,1739,1742,1745,1748,1751,1757,1760,1763,1769,1775,1781,1787,1796,1802,1808,1817,1820,1826,1829,1835,1838,1838,1838,1835,1835,1835,1835,1835,1832,1832,1829,1829,1829,1826,1823,1820,1814,1808,1805,1799,1796,1790,1784,1781,1775,1769,1763,1757,1751,1745,1739,1733,1724,1718,1712,1706,1700,1691,1688,1685,1682,1682,1679,1676,1667,1658,1652,1646,1637,1622,1610,1598,1583,1571,1556,1544,1532,1520,1508,1496,1484,1469,1457,1445,1433,1421,1406,1394,1382,1370,1358,1349,1340,1331,1319,1307,1292,1277,1265,1253,1250,1244,1238,1229,1220,1211,1205,1196,1187,1178,1166,1154,1139,1127,1115
1307,1307,1307,1304,1304,1304,1301,1301,1301,1301,1307,1310,1310,1310,1310,1307,1304,1301,1298,1295,1292,1292,1292,1292,1292,1292,1295,1295,1295,1298,1298,1298,1298,1301,1301,1304,1304,1307,1310,1313,1313,1316,1319,1319,1322,1322,1322,1322,1322,1319,1319,1316,1316,1313,1310,1310,1307,1304,1304,1301,1301,1298,1298,1292,1289,1283,1280,1277,1277,1274,1274,1274,1274,1271,1271,1271,1268,1268,1268,1265,1265,1265,1259,1256,1253,1247,1244,1238,1235,1232,1229,1226,1223,1220,1220,1220,1223,1226,1232,1235,1238,1241,1247,1247,1250,1253,1253,1256,1256,1256,1256,1256,1256,1256,1256,1256,1256,1259,1259,1262,1262,1265,1268,1268,1271,1271,1274,1277,1277,1280,1283,1286,1286,1286,1283,1283,1283,1280,1280,1280,1280,1280,1277,1277,1277,1277,1277,1274,1274,1271,1271,1268,1265,1265,1262,1262,1259,1256,1256,1253,1253,1250,1247,1247,1244,1244,1241,1241,1238,1238,1235,1235,1232,1232,1229,1229,1229,1226,1223,1220,1220,1223,1226,1226,1229,1229,1232,1232,1229,1229,1226,1223,1220,1217,1214,1211,1208,1205,1202,1199,1196,1193,1190,1187,1184,1181,1178,1172,1166,1160,1154,1148,1142,1136,1130,1124,1118,1112,1106,1100,1094,1088,1085,1079,1076,1070,1067,1064,1058,1055,1049,1043,1040,1034,1028,1022,1019,1016,1013,1010,1007,1007,1004,1001,998,995,992,989,986,986,995,1001,1007,1013,1022,1028,1034,1040,1049,1055,1061,1067,1070,1076,1082,1088,1100,1109,1121,1130,1139,1151,1160,1169,1181,1190,1199,1211,1217,1226,1232,1241,1247,1253,1259,1262,1268,1274,1280,1286,1289,1295,1301,1307,1316,1322,1328,1331,1337,1343,1349,1355,1361,1370,1379,1388,1394,1403,1409,1418,1427,1433,1442,1451,1454,1460,1463,1466,1469,1472,1478,1484,1487,1493,1499,1505,1511,1517,1523,1529,1538,1544,1556,1565,1574,1586,1595,1604,1613,1625,1634,1643,1652,1655,1661,1664,1670,1673,1676,1682,1685,1691,1694,1700,1703,1706,1712,1715,1721,1724,1727,1730,1724,1721,1715,1712,1706,1703,1700,1697,1694,1691,1688,1685,1682,1679,1676,1673,1673,1670,1670,1667,1664,1661,1658,1655,1652,1652,1652,1652,1649,1643,1637,1631,1631,1631,1631,1628,1628,1628,1628,1625,1625,1622,1616,1613,1607,1604,1601,1598,1595,1589,1589,1598,1607,1616,1625,1628,1634,1637,1643,1646,1652,1655,1661,1664,1667,1670,1673,1673,1676,1676,1676,1673,1673,1670,1670,1667,1667,1667,1667,1670,1670,1670,1673,1673,1673,1676,1676,1676,1679,1679,1679,1682,1682,1688,1688,1691,1691,1691,1694,1694,1694,1694,1697,1697,1697,1700,1703,1703,1706,1706,1709,1709,1709,1706,1706,1703,1700,1697,1697,1694,1691,1691,1688,1688,1688,1688,1688,1688,1688,1688,1688,1688,1688,1688,1688,1688,1688,1691,1691,1691,1691,1691,1694,1694,1697,1700,1703,1703,1706,1709,1712,1712,1715,1718,1718,1721,1724,1727,1727,1730,1736,1739,1742,1745,1748,1754,1757,1760,1766,1775,1781,1787,1793,1802,1808,1811,1817,1820,1826,1829,1832,1832,1832,1832,1829,1829,1829,1829,1829,1826,1826,1826,1823,1823,1820,1817,1811,1808,1802,1796,1793,1787,1781,1778,1772,1763,1757,1751,1745,1739,1730,1724,1718,1712,1706,1697,1691,1688,1685,1685,1682,1682,1679,1676,1670,1661,1655,1646,1640,1628,1616,1601,1589,1577,1565,1553,1541,1526,1514,1502,1490,1478,1466,1451,1439,1427,1415,1403,1391,1376,1364,1352,1343,1331,1322,1310,1295,1280,1274,1271,1268,1259,1253,1244,1235,1226,1217,1208,1199,1187,1175,1160,1148,1133,1121
1304,1304,1301,1301,1301,1301,1301,1298,1298,1298,1301,1301,1301,1301,1301,1298,1295,1292,1289,1289,1286,1286,1286,1286,1289,1289,1289,1289,1292,1292,1292,1292,1295,1295,1298,1301,1301,1304,1307,1310,1310,1313,1316,1319,1319,1319,1319,1319,1316,1316,1313,1310,1310,1307,1304,1304,1301,1301,1298,1298,1295,1295,1289,1286,1283,1277,1274,1271,1268,1268,1268,1265,1265,1265,1262,1262,1262,1262,1259,1259,1259,1256,1253,1250,1244,1241,1235,1232,1229,1226,1223,1220,1217,1214,1211,1214,1217,1220,1226,1229,1232,1235,1238,1241,1244,1244,1247,1247,1250,1250,1250,1250,1250,1250,1250,1250,1250,1253,1253,1256,1259,1259,1262,1262,1265,1268,1268,1271,1274,1274,1277,1280,1280,1280,1277,1277,1277,1277,1277,1277,1274,1274,1274,1274,1274,1274,1271,1271,1268,1265,1265,1262,1262,1259,1256,1256,1253,1253,1250,1247,1247,1244,1244,1241,1238,1238,1235,1235,1232,1232,1229,1229,1226,1226,1223,1223,1223,1217,1217,1217,1217,1217,1217,1220,1223,1223,1226,1226,1226,1223,1220,1217,1214,1211,1208,1205,1202,1199,1196,1193,1190,1187,1184,1184,1181,1175,1172,1166,1160,1154,1148,1142,1136,1130,1124,1118,1112,1106,1100,1094,1088,1082,1079,1076,1073,1067,1064,1061,1055,1052,1046,1040,1034,1028,1022,1016,1013,1010,1007,1007,1004,1001,998,995,992,992,989,986,983,986,992,998,1007,1013,1019,1028,1034,1040,1049,1055,1061,1067,1070,1076,1082,1091,1103,1112,1124,1133,1142,1154,1163,1172,1184,1193,1202,1211,1220,1226,1235,1238,1244,1250,1256,1262,1265,1271,1277,1283,1289,1295,1301,1307,1313,1319,1325,1331,1337,1340,1346,1355,1364,1373,1379,1388,1394,1403,1412,1418,1427,1436,1442,1451,1454,1457,1460,1463,1466,1472,1478,1481,1487,1493,1499,1505,1511,1517,1523,1532,1538,1547,1556,1568,1577,1586,1595,1607,1616,1625,1634,1643,1649,1655,1661,1664,1670,1673,1676,1682,1685,1691,1694,1700,1703,1706,1712,1715,1721,1724,1724,1724,1721,1715,1712,1706,1700,1694,1694,1691,1691,1688,1685,1682,1679,1676,1673,1670,1667,1667,1664,1664,1661,1658,1655,1652,1652,1652,1652,1652,1649,1643,1637,1631,1625,1625,1625,1622,1622,1622,1622,1619,1619,1613,1607,1604,1601,1598,1595,1592,1589,1583,1586,1592,1601,1610,1616,1622,1625,1631,1634,1640,1643,1649,1652,1655,1658,1661,1664,1667,1670,1667,1667,1664,1664,1661,1661,1658,1658,1658,1661,1661,1661,1664,1664,1664,1667,1667,1667,1670,1670,1670,1673,1676,1682,1685,1688,1691,1691,1691,1694,1694,1694,1697,1697,1697,1697,1700,1700,1700,1703,1703,1703,1703,1703,1700,1697,1697,1694,1691,1691,1688,1685,1685,1682,1682,1682,1682,1682,1682,1682,1682,1682,1682,1682,1682,1682,1682,1682,1682,1685,1685,1685,1685,1688,1691,1694,1697,1697,1700,1703,1703,1706,1709,1709,1712,1715,1718,1718,1721,1724,1727,1730,1736,1739,1742,1745,1748,1754,1760,1766,1772,1781,1787,1793,1799,1802,1808,1811,1817,1820,1826,1826,1826,1826,1826,1826,1823,1823,1823,1823,1823,1820,1820,1820,1820,1817,1814,1811,1805,1799,1796,1790,1784,1778,1769,1763,1757,1751,1745,1736,1730,1724,1718,1712,1703,1697,1691,1688,1688,1685,1685,1682,1679,1679,1676,1673,1664,1658,1649,1640,1634,1622,1610,1598,1586,1571,1559,1547,1535,1523,1511,1499,1487,1475,1466,1451,1436,1421,1409,1397,1385,1373,1361,1346,1334,1325,1313,1301,1298,1295,1289,1283,1274,1265,1256,1250,1238,1229,1217,1208,1196,1187,1169,1154,1142,1127
1298,1298,1298,1298,1295,1295,1295,1295,1295,1292,1292,1292,1292,1292,1292,1292,1289,1286,1283,1280,1280,1280,1283,1283,1283,1283,1286,1286,1286,1286,1289,1289,1292,1292,1295,1298,1301,1301,1304,1307,1310,1310,1313,1316,1316,1319,1316,1316,1313,1310,1307,1304,1304,1301,1298,1298,1295,1295,1292,1292,1289,1289,1283,1280,1277,1271,1268,1262,1262,1262,1259,1259,1259,1256,1256,1256,1253,1253,1253,1250,1250,1250,1247,1241,1238,1232,1229,1226,1223,1220,1217,1214,1211,1208,1205,1208,1211,1214,1217,1220,1223,1226,1229,1232,1235,1238,1241,1241,1241,1244,1244,1244,1244,1244,1244,1244,1244,1247,1247,1250,1253,1253,1256,1259,1259,1262,1265,1265,1268,1271,1271,1277,1277,1274,1274,1271,1271,1271,1271,1271,1271,1271,1271,1268,1268,1268,1265,1265,1262,1262,1259,1256,1256,1253,1253,1250,1247,1247,1244,1244,1241,1238,1238,1235,1235,1232,1229,1229,1226,1226,1223,1223,1220,1220,1217,1217,1214,1214,1214,1214,1214,1214,1214,1214,1214,1217,1220,1220,1220,1217,1214,1211,1208,1205,1202,1199,1196,1193,1190,1187,1184,1184,1181,1178,1175,1169,1166,1163,1157,1151,1145,1139,1133,1127,1121,1115,1109,1103,1097,1091,1085,1079,1076,1073,1070,1064,1061,1058,1052,1049,1043,1037,1031,1025,1019,1013,1010,1007,1004,1001,998,995,992,992,989,986,983,980,980,989,995,1001,1007,1013,1019,1028,1034,1040,1046,1052,1061,1067,1073,1076,1085,1094,1106,1115,1127,1136,1145,1157,1166,1175,1187,1196,1205,1214,1220,1226,1232,1238,1241,1247,1253,1259,1262,1268,1274,1280,1286,1292,1298,1304,1310,1316,1322,1328,1334,1340,1349,1358,1364,1373,1379,1388,1397,1403,1412,1421,1427,1436,1445,1448,1451,1454,1457,1460,1463,1469,1475,1481,1487,1493,1499,1505,1511,1517,1526,1532,1541,1550,1559,1568,1577,1589,1598,1607,1616,1625,1634,1643,1649,1655,1661,1664,1670,1673,1676,1682,1685,1691,1694,1700,1703,1706,1712,1715,1718,1718,1721,1721,1718,1712,1709,1703,1694,1685,1682,1682,1682,1682,1679,1679,1676,1673,1670,1667,1664,1661,1661,1658,1655,1652,1652,1652,1652,1652,1652,1652,1646,1640,1634,1628,1622,1619,1619,1616,1616,1616,1616,1613,1610,1604,1601,1598,1595,1589,1586,1583,1583,1580,1580,1586,1595,1604,1607,1613,1616,1622,1625,1631,1634,1640,1643,1649,1652,1655,1655,1658,1658,1658,1655,1655,1652,1652,1649,1649,1649,1652,1652,1652,1655,1655,1655,1658,1658,1658,1661,1661,1661,1667,1673,1676,1682,1685,1688,1691,1691,1691,1694,1694,1694,1697,1697,1697,1697,1700,1700,1700,1703,1703,1700,1697,1697,1694,1694,1691,1688,1688,1685,1682,1682,1679,1679,1676,1676,1676,1676,1676,1676,1676,1676,1676,1676,1676,1676,1676,1676,1676,1679,1679,1679,1682,1685,1688,1688,1691,1694,1694,1697,1700,1700,1703,1706,1709,1709,1712,1715,1718,1721,1724,1727,1730,1736,1739,1742,1745,1751,1757,1766,1772,1778,1784,1787,1793,1796,1802,1805,1811,1817,1820,1820,1820,1820,1820,1820,1817,1817,1817,1817,1817,1817,1814,1814,1814,1814,1811,1805,1802,1796,1790,1784,1778,1769,1763,1757,1751,1742,1736,1730,1724,1718,1709,1703,1697,1691,1691,1688,1688,1685,1682,1682,1679,1679,1676,1673,1667,1658,1652,1643,1637,1631,1619,1604,1592,1580,1568,1556,1544,1532,1520,1508,1499,1487,1478,1466,1454,1445,1433,1424,1409,1394,1379,1361,1346,1331,1322,1319,1316,1313,1304,1295,1289,1280,1268,1259,1247,1238,1226,1217,1208,1196,1181,1166,1151,1136
1292,1292,1292,1292,1292,1289,1289,1289,1286,1286,1283,1283,1283,1283,1280,1280,1280,1277,1277,1274,1277,1277,1277,1277,1280,1280,1280,1280,1283,1283,1283,1286,1289,1292,1292,1295,1298,1301,1301,1304,1307,1307,1310,1313,1316,1316,1313,1310,1307,1304,1301,1298,1298,1295,1295,1292,1289,1289,1286,1286,1283,1283,1277,1274,1268,1265,1262,1256,1253,1253,1253,1250,1250,1250,1250,1247,1247,1247,1244,1244,1244,1241,1238,1235,1229,1226,1223,1220,1217,1214,1211,1208,1205,1202,1199,1202,1205,1208,1211,1214,1217,1220,1223,1226,1229,1232,1232,1235,1235,1235,1238,1238,1238,1238,1238,1238,1238,1241,1244,1244,1247,1250,1250,1253,1256,1256,1259,1262,1262,1265,1265,1271,1271,1271,1268,1268,1268,1268,1268,1265,1265,1265,1265,1265,1265,1262,1262,1259,1256,1256,1253,1253,1250,1247,1247,1244,1244,1241,1238,1238,1235,1235,1232,1229,1229,1226,1226,1223,1223,1220,1220,1217,1214,1214,1211,1211,1208,1211,1211,1211,1211,1211,1211,1211,1211,1211,1211,1214,1214,1211,1208,1205,1202,1199,1196,1193,1190,1187,1184,1181,1181,1178,1175,1172,1169,1163,1160,1157,1151,1148,1142,1133,1127,1121,1115,1109,1103,1097,1091,1085,1079,1076,1073,1070,1067,1061,1058,1055,1049,1043,1037,1034,1028,1022,1016,1010,1004,1001,998,995,995,992,989,986,983,980,977,977,983,992,998,1004,1010,1016,1025,1031,1034,1040,1046,1052,1058,1067,1073,1079,1088,1100,1109,1118,1130,1139,1148,1160,1169,1178,1190,1199,1208,1211,1217,1223,1229,1235,1238,1244,1250,1256,1262,1265,1271,1277,1283,1289,1298,1304,1310,1316,1322,1328,1334,1340,1349,1358,1364,1373,1382,1388,1397,1406,1412,1421,1427,1436,1439,1445,1451,1454,1457,1460,1466,1469,1475,1481,1487,1493,1499,1505,1511,1520,1526,1532,1541,1550,1559,1568,1580,1589,1598,1607,1616,1625,1634,1640,1646,1652,1658,1664,1670,1673,1676,1682,1685,1691,1694,1700,1703,1706,1712,1712,1715,1715,1718,1718,1715,1709,1703,1697,1688,1679,1673,1670,1670,1670,1670,1670,1670,1670,1667,1664,1661,1658,1658,1655,1652,1652,1652,1652,1652,1652,1652,1649,1643,1637,1631,1625,1619,1613,1613,1613,1610,1610,1610,1604,1601,1598,1592,1589,1586,1583,1580,1577,1574,1574,1574,1580,1589,1595,1601,1604,1610,1613,1619,1622,1628,1631,1637,1640,1643,1646,1649,1649,1649,1646,1646,1643,1643,1643,1640,1640,1643,1643,1643,1646,1646,1646,1649,1649,1649,1652,1652,1658,1661,1667,1673,1676,1682,1685,1688,1691,1691,1691,1694,1694,1694,1697,1697,1697,1700,1700,1700,1700,1700,1697,1694,1691,1691,1688,1688,1685,1682,1682,1679,1676,1676,1673,1673,1673,1670,1670,1670,1670,1670,1670,1670,1670,1670,1670,1670,1670,1670,1670,1673,1673,1673,1676,1679,1682,1685,1688,1688,1691,1694,1694,1697,1700,1700,1703,1706,1709,1712,1715,1718,1721,1724,1727,1730,1736,1739,1742,1751,1757,1763,1769,1775,1778,1784,1787,1793,1796,1802,1805,1811,1814,1814,1814,1814,1814,1814,1814,1811,1811,1811,1811,1811,1808,1808,1808,1808,1805,1802,1799,1793,1787,1781,1775,1766,1760,1751,1745,1736,1730,1724,1715,1709,1703,1697,1694,1691,1688,1688,1685,1685,1682,1679,1679,1676,1676,1673,1670,1661,1655,1646,1640,1631,1625,1613,1601,1589,1577,1565,1553,1541,1529,1520,1508,1499,1487,1478,1466,1457,1445,1433,1424,1412,1403,1391,1379,1364,1349,1337,1334,1328,1319,1307,1298,1289,1277,1268,1256,1247,1235,1226,1217,1205,1190,1175,1160,1145
1289,1289,1286,1286,1286,1286,1286,1283,1280,1277,1277,1274,1274,1274,1274,1271,1271,1271,1271,1271,1271,1271,1271,1274,1274,1274,1277,1277,1277,1280,1283,1283,1286,1289,1292,1292,1295,1298,1298,1301,1304,1307,1307,1310,1313,1310,1307,1304,1301,1298,1295,1295,1292,1289,1289,1286,1286,1283,1283,1280,1280,1274,1271,1268,1262,1259,1253,1250,1247,1247,1244,1244,1244,1241,1241,1241,1238,1238,1238,1238,1235,1235,1232,1226,1223,1220,1214,1211,1211,1208,1205,1202,1199,1196,1193,1196,1199,1202,1205,1205,1208,1211,1214,1217,1220,1223,1226,1229,1229,1229,1229,1232,1232,1232,1232,1232,1235,1235,1238,1241,1241,1244,1247,1247,1250,1253,1253,1256,1256,1259,1262,1265,1265,1265,1262,1262,1262,1262,1262,1262,1262,1262,1259,1259,1259,1256,1256,1253,1253,1250,1247,1247,1244,1244,1241,1238,1238,1235,1235,1232,1229,1229,1226,1226,1223,1220,1220,1217,1217,1214,1214,1211,1211,1208,1208,1205,1202,1202,1202,1205,1205,1205,1205,1205,1205,1208,1208,1208,1208,1205,1202,1199,1196,1193,1190,1187,1184,1181,1181,1178,1175,1172,1169,1166,1163,1160,1154,1151,1145,1142,1136,1130,1124,1118,1112,1106,1100,1094,1088,1082,1076,1070,1067,1067,1064,1058,1055,1052,1046,1040,1034,1028,1022,1016,1010,1007,1001,995,995,992,989,986,983,980,977,977,977,977,986,992,1001,1007,1013,1019,1025,1031,1037,1043,1049,1055,1061,1067,1073,1085,1094,1106,1115,1124,1136,1145,1157,1166,1175,1184,1193,1202,1205,1211,1214,1220,1226,1232,1238,1241,1247,1253,1259,1265,1271,1277,1283,1289,1295,1301,1307,1313,1319,1325,1334,1343,1349,1358,1367,1373,1379,1388,1394,1403,1409,1418,1424,1430,1436,1442,1448,1451,1457,1460,1466,1469,1472,1478,1484,1490,1496,1505,1508,1514,1523,1532,1541,1550,1562,1571,1580,1589,1598,1610,1619,1625,1634,1640,1646,1652,1658,1664,1670,1673,1676,1682,1685,1691,1694,1700,1703,1706,1709,1709,1712,1712,1715,1715,1709,1706,1697,1691,1682,1673,1667,1661,1661,1661,1661,1658,1658,1658,1658,1658,1658,1655,1652,1652,1652,1652,1652,1652,1652,1652,1652,1646,1640,1634,1628,1622,1616,1610,1607,1607,1604,1604,1601,1598,1592,1589,1586,1583,1580,1577,1574,1571,1568,1565,1568,1574,1583,1589,1592,1598,1601,1607,1610,1616,1619,1625,1628,1634,1637,1640,1640,1640,1640,1637,1637,1634,1634,1631,1631,1634,1634,1634,1637,1637,1637,1640,1640,1640,1643,1646,1652,1658,1661,1667,1673,1676,1682,1685,1688,1691,1691,1691,1694,1694,1694,1697,1697,1697,1700,1700,1697,1694,1694,1691,1688,1688,1685,1682,1682,1679,1679,1676,1673,1673,1670,1670,1667,1667,1667,1664,1664,1664,1664,1664,1664,1664,1664,1664,1664,1664,1664,1664,1664,1667,1667,1673,1676,1679,1682,1682,1685,1685,1688,1691,1691,1694,1697,1700,1700,1703,1709,1712,1715,1718,1721,1724,1727,1733,1736,1742,1748,1754,1760,1763,1769,1775,1778,1784,1787,1793,1796,1802,1805,1808,1808,1808,1808,1808,1808,1808,1805,1805,1805,1805,1805,1805,1802,1802,1802,1799,1796,1793,1787,1781,1775,1769,1763,1754,1748,1739,1733,1724,1718,1709,1703,1697,1694,1691,1691,1688,1688,1685,1682,1682,1679,1679,1676,1673,1673,1670,1664,1655,1649,1640,1634,1631,1622,1610,1598,1586,1574,1562,1553,1541,1532,1520,1511,1499,1490,1478,1466,1457,1445,1436,1424,1415,1403,1391,1382,1370,1361,1349,1337,1328,1316,1307,1298,1286,1277,1265,1256,1244,1235,1226,1214,1202,1187,1169,1154
1283,1283,1283,1280,1280,1280,1277,1274,1274,1271,1268,1268,1265,1265,1265,1265,1268,1265,1265,1265,1265,1268,1268,1268,1268,1271,1271,1274,1274,1277,1280,1283,1283,1286,1289,1289,1292,1295,1298,1298,1301,1304,1304,1307,1307,1304,1304,1301,1298,1295,1292,1289,1286,1283,1283,1280,1280,1277,1277,1274,1274,1268,1265,1262,1256,1253,1247,1244,1241,1238,1238,1235,1235,1235,1235,1232,1232,1232,1229,1229,1229,1226,1223,1220,1217,1211,1208,1205,1202,1202,1199,1196,1193,1190,1187,1190,1190,1193,1196,1199,1202,1205,1208,1211,1214,1217,1220,1220,1223,1223,1223,1223,1223,1226,1226,1226,1229,1232,1232,1235,1238,1238,1241,1241,1244,1247,1247,1250,1253,1253,1256,1259,1262,1259,1259,1259,1259,1256,1256,1256,1256,1256,1256,1253,1253,1250,1250,1247,1247,1244,1244,1241,1238,1238,1235,1235,1232,1229,1229,1226,1226,1223,1220,1220,1217,1217,1214,1211,1211,1208,1208,1205,1205,1202,1202,1199,1199,1196,1196,1196,1196,1196,1199,1199,1199,1199,1199,1202,1202,1199,1196,1193,1190,1187,1184,1181,1181,1178,1175,1172,1169,1166,1163,1160,1157,1154,1148,1145,1142,1136,1133,1127,1121,1115,1106,1100,1094,1088,1082,1076,1070,1067,1064,1061,1058,1055,1052,1049,1043,1037,1031,1025,1019,1013,1007,1001,995,992,989,986,983,980,980,977,974,974,974,977,989,995,1004,1010,1016,1022,1028,1034,1040,1046,1052,1055,1061,1070,1082,1091,1100,1112,1121,1133,1142,1151,1160,1169,1178,1187,1193,1202,1208,1211,1214,1220,1223,1229,1235,1241,1244,1250,1256,1262,1268,1274,1280,1286,1292,1298,1304,1313,1319,1325,1334,1340,1349,1355,1364,1370,1379,1385,1394,1400,1409,1415,1421,1427,1433,1439,1442,1448,1454,1457,1463,1469,1472,1475,1481,1490,1493,1499,1505,1514,1523,1532,1544,1553,1562,1571,1580,1592,1601,1610,1616,1625,1631,1640,1643,1649,1655,1661,1667,1673,1676,1682,1685,1691,1694,1700,1700,1703,1703,1706,1706,1709,1709,1712,1706,1700,1691,1685,1676,1667,1661,1652,1649,1649,1649,1649,1649,1649,1649,1646,1646,1646,1649,1652,1652,1652,1652,1652,1652,1652,1652,1646,1640,1634,1628,1622,1616,1610,1604,1601,1598,1598,1592,1589,1586,1583,1580,1577,1574,1571,1568,1565,1562,1559,1562,1568,1574,1580,1583,1589,1592,1598,1601,1607,1610,1616,1619,1625,1628,1631,1631,1631,1628,1628,1625,1625,1625,1622,1625,1625,1625,1628,1628,1628,1631,1631,1631,1637,1643,1646,1652,1658,1661,1667,1673,1676,1679,1685,1688,1691,1691,1691,1694,1694,1694,1697,1697,1697,1697,1694,1691,1688,1688,1685,1682,1682,1679,1676,1676,1673,1673,1670,1670,1667,1664,1664,1664,1661,1661,1661,1658,1658,1658,1658,1658,1658,1658,1658,1658,1658,1658,1658,1658,1661,1661,1667,1670,1673,1676,1679,1679,1682,1682,1685,1688,1691,1691,1694,1697,1700,1706,1709,1712,1715,1718,1721,1724,1730,1736,1742,1745,1751,1754,1760,1763,1769,1772,1778,1784,1787,1793,1796,1802,1802,1802,1802,1802,1802,1802,1802,1802,1799,1799,1799,1799,1799,1799,1796,1796,1793,1790,1787,1781,1775,1769,1763,1757,1751,1742,1736,1727,1721,1712,1706,1697,1694,1694,1691,1691,1688,1685,1685,1682,1682,1679,1676,1676,1673,1673,1670,1667,1658,1652,1643,1637,1631,1628,1619,1607,1595,1586,1574,1565,1553,1544,1532,1523,1511,1499,1490,1478,1469,1457,1448,1436,1424,1415,1403,1394,1382,1370,1358,1346,1337,1328,1316,1307,1295,1286,1274,1265,1253,1244,1235,1223,1211,1196,1181,1163
1277,1277,1277,1277,1274,1271,1271,1268,1265,1262,1262,1259,1259,1256,1259,1259,1262,1259,1259,1262,1262,1262,1262,1265,1265,1265,1268,1271,1271,1274,1277,1280,1280,1283,1286,1289,1289,1292,1295,1295,1298,1301,1301,1301,1301,1298,1298,1295,1292,1289,1286,1283,1280,1280,1277,1277,1274,1274,1271,1271,1268,1262,1259,1253,1250,1247,1241,1238,1232,1232,1229,1229,1229,1226,1226,1226,1226,1223,1223,1223,1220,1220,1217,1214,1208,1205,1202,1199,1196,1193,1193,1190,1187,1184,1184,1184,1184,1187,1190,1193,1196,1199,1199,1202,1205,1208,1211,1214,1217,1217,1217,1217,1217,1217,1220,1223,1223,1226,1229,1229,1232,1232,1235,1238,1238,1241,1244,1244,1247,1250,1250,1253,1256,1256,1253,1253,1253,1253,1253,1253,1250,1250,1250,1250,1247,1247,1244,1241,1241,1238,1238,1235,1232,1232,1229,1229,1226,1226,1223,1220,1220,1217,1217,1214,1211,1211,1208,1208,1205,1202,1202,1199,1199,1196,1196,1193,1193,1190,1190,1190,1190,1190,1190,1190,1193,1193,1193,1193,1196,1193,1190,1187,1184,1181,1181,1178,1175,1172,1169,1166,1163,1160,1157,1154,1151,1148,1142,1139,1136,1130,1127,1121,1115,1109,1103,1097,1091,1085,1079,1073,1067,1064,1061,1058,1055,1052,1049,1043,1037,1031,1028,1022,1016,1010,1004,998,992,986,983,980,980,977,974,974,974,974,974,980,992,998,1007,1013,1019,1022,1028,1034,1040,1046,1052,1058,1067,1076,1088,1097,1109,1118,1127,1136,1148,1154,1163,1172,1178,1187,1196,1202,1208,1211,1217,1220,1223,1229,1232,1238,1241,1247,1253,1259,1265,1274,1280,1286,1292,1298,1307,1310,1316,1325,1331,1340,1346,1355,1361,1370,1376,1385,1391,1400,1406,1412,1418,1424,1430,1433,1439,1445,1451,1454,1460,1463,1469,1475,1478,1484,1490,1496,1505,1514,1523,1535,1544,1553,1562,1574,1583,1592,1601,1610,1616,1622,1631,1637,1643,1649,1655,1661,1667,1673,1676,1682,1685,1691,1694,1697,1697,1700,1700,1703,1703,1706,1706,1706,1703,1694,1685,1679,1670,1661,1655,1646,1640,1640,1640,1640,1637,1637,1637,1640,1640,1646,1649,1649,1649,1649,1649,1652,1652,1652,1649,1643,1637,1631,1625,1619,1613,1607,1601,1595,1592,1589,1586,1583,1580,1577,1574,1571,1568,1562,1559,1559,1556,1556,1559,1562,1568,1571,1577,1580,1586,1589,1595,1598,1604,1607,1613,1616,1622,1622,1622,1622,1619,1619,1616,1616,1613,1616,1616,1616,1619,1619,1619,1622,1622,1628,1631,1637,1643,1646,1652,1658,1661,1667,1670,1676,1679,1682,1688,1691,1691,1691,1694,1694,1694,1697,1694,1691,1691,1688,1685,1682,1682,1679,1676,1676,1673,1673,1670,1667,1667,1664,1664,1661,1661,1658,1658,1658,1655,1655,1655,1652,1652,1652,1652,1652,1652,1652,1652,1652,1652,1652,1652,1655,1658,1661,1664,1670,1673,1673,1676,1676,1679,1682,1682,1685,1688,1691,1694,1697,1700,1706,1709,1712,1715,1718,1721,1727,1733,1736,1742,1745,1751,1754,1760,1763,1769,1772,1778,1781,1787,1790,1796,1796,1796,1796,1796,1796,1796,1796,1796,1796,1793,1793,1793,1793,1793,1793,1787,1784,1781,1778,1775,1772,1766,1760,1754,1745,1739,1730,1724,1715,1709,1700,1694,1691,1691,1691,1688,1688,1685,1685,1682,1679,1679,1676,1676,1673,1670,1670,1667,1661,1655,1646,1637,1634,1631,1625,1616,1607,1595,1586,1574,1565,1553,1544,1532,1523,1511,1502,1490,1481,1469,1457,1448,1436,1427,1415,1403,1391,1379,1367,1355,1346,1337,1325,1316,1304,1295,1283,1274,1262,1253,1244,1235,1220,1208,1190,1175
1274,1271,1271,1268,1268,1265,1262,1259,1259,1256,1253,1253,1250,1250,1253,1256,1256,1256,1256,1256,1256,1259,1259,1259,1262,1262,1265,1268,1271,1271,1274,1277,1280,1280,1283,1286,1286,1289,1292,1292,1295,1298,1298,1295,1295,1292,1292,1289,1289,1286,1283,1277,1274,1274,1271,1271,1268,1268,1265,1265,1262,1256,1253,1247,1244,1238,1235,1232,1226,1223,1223,1223,1220,1220,1220,1217,1217,1217,1214,1214,1214,1211,1211,1205,1202,1199,1196,1193,1190,1187,1187,1184,1184,1181,1181,1181,1184,1184,1184,1184,1187,1190,1193,1196,1199,1202,1205,1208,1211,1211,1211,1211,1211,1214,1214,1217,1217,1220,1223,1223,1226,1229,1229,1232,1235,1235,1238,1241,1241,1244,1244,1247,1250,1250,1250,1247,1247,1247,1247,1247,1247,1244,1244,1244,1241,1241,1238,1238,1235,1232,1232,1229,1229,1226,1223,1223,1220,1220,1217,1214,1214,1211,1211,1208,1205,1205,1202,1202,1199,1199,1196,1193,1193,1190,1190,1187,1187,1184,1184,1181,1181,1184,1184,1184,1184,1184,1187,1187,1187,1187,1184,1181,1178,1178,1175,1172,1169,1166,1163,1160,1157,1154,1151,1148,1145,1142,1136,1133,1130,1124,1121,1118,1112,1106,1100,1094,1088,1079,1073,1067,1061,1058,1055,1055,1052,1049,1046,1040,1034,1028,1022,1016,1010,1007,1001,995,989,983,980,977,974,971,971,971,971,971,971,983,995,1001,1007,1013,1019,1025,1031,1034,1040,1046,1052,1064,1073,1085,1094,1103,1115,1124,1133,1139,1148,1157,1163,1172,1181,1187,1196,1202,1208,1214,1217,1220,1226,1229,1232,1238,1241,1247,1253,1259,1268,1274,1280,1286,1292,1298,1304,1310,1316,1322,1331,1337,1346,1352,1361,1367,1376,1382,1391,1397,1403,1409,1415,1421,1424,1430,1436,1442,1445,1451,1457,1460,1466,1469,1475,1481,1487,1496,1505,1514,1526,1535,1544,1556,1565,1574,1583,1592,1601,1607,1616,1622,1631,1637,1643,1649,1652,1658,1664,1670,1676,1682,1685,1688,1691,1691,1694,1694,1697,1700,1700,1703,1703,1703,1697,1688,1679,1673,1664,1655,1649,1640,1634,1628,1628,1628,1631,1631,1634,1637,1640,1643,1646,1649,1649,1649,1649,1649,1649,1649,1643,1637,1631,1625,1619,1613,1607,1601,1595,1589,1586,1583,1580,1577,1574,1571,1565,1562,1559,1556,1553,1550,1547,1550,1553,1556,1559,1565,1568,1574,1577,1583,1586,1592,1595,1601,1604,1607,1613,1613,1613,1610,1610,1607,1607,1607,1607,1607,1607,1610,1610,1610,1613,1616,1622,1628,1631,1637,1643,1646,1652,1658,1661,1667,1670,1676,1679,1682,1688,1691,1691,1694,1694,1694,1694,1691,1688,1685,1685,1682,1679,1676,1676,1673,1670,1670,1667,1667,1664,1664,1661,1661,1658,1658,1655,1655,1652,1652,1652,1649,1649,1649,1646,1646,1646,1646,1646,1646,1646,1646,1646,1646,1646,1649,1652,1655,1661,1664,1667,1670,1670,1673,1673,1676,1679,1682,1685,1688,1691,1694,1697,1700,1706,1709,1712,1715,1718,1721,1727,1730,1736,1739,1745,1751,1754,1760,1763,1769,1772,1778,1781,1787,1790,1793,1790,1790,1790,1790,1790,1790,1790,1790,1787,1787,1787,1787,1787,1784,1778,1775,1772,1769,1766,1763,1760,1754,1748,1742,1736,1727,1721,1712,1706,1697,1694,1688,1685,1688,1688,1688,1685,1682,1682,1679,1679,1676,1673,1673,1670,1670,1667,1664,1655,1649,1640,1634,1631,1628,1622,1619,1607,1598,1586,1577,1565,1556,1544,1535,1523,1511,1502,1490,1481,1469,1460,1448,1436,1424,1412,1400,1388,1376,1364,1355,1346,1334,1325,1313,1304,1292,1283,1274,1262,1253,1244,1229,1217,1202,1184
1268,1268,1265,1262,1259,1259,1256,1253,1250,1247,1247,1244,1244,1247,1250,1250,1250,1250,1250,1253,1253,1253,1253,1256,1259,1262,1262,1265,1268,1271,1271,1274,1277,1277,1280,1283,1283,1286,1289,1289,1292,1292,1292,1292,1289,1286,1286,1283,1283,1280,1277,1274,1271,1268,1268,1265,1265,1262,1262,1259,1253,1250,1247,1241,1238,1232,1229,1226,1220,1217,1214,1214,1214,1211,1211,1211,1211,1208,1208,1208,1205,1205,1202,1199,1196,1193,1190,1187,1184,1184,1184,1181,1181,1178,1175,1175,1181,1181,1181,1184,1184,1184,1187,1190,1190,1193,1196,1199,1202,1205,1205,1205,1205,1208,1208,1211,1214,1214,1217,1220,1220,1223,1226,1226,1229,1232,1232,1235,1235,1238,1241,1241,1244,1244,1244,1244,1244,1244,1241,1241,1241,1238,1238,1238,1235,1235,1232,1232,1229,1229,1226,1223,1223,1220,1220,1217,1214,1214,1211,1211,1208,1205,1205,1202,1202,1199,1196,1196,1193,1193,1190,1190,1187,1184,1184,1181,1181,1178,1178,1175,1175,1175,1175,1178,1178,1178,1178,1181,1181,1181,1178,1178,1175,1172,1169,1166,1163,1160,1157,1154,1151,1148,1145,1142,1139,1136,1133,1127,1124,1121,1115,1112,1106,1100,1094,1088,1082,1076,1070,1064,1058,1055,1052,1049,1046,1043,1040,1037,1031,1025,1019,1013,1007,1001,995,989,983,980,974,971,971,971,971,971,971,971,974,986,995,1001,1007,1013,1019,1025,1031,1037,1043,1049,1061,1070,1079,1091,1100,1109,1115,1124,1133,1142,1148,1157,1166,1172,1181,1190,1196,1202,1208,1214,1217,1220,1226,1229,1235,1238,1241,1247,1253,1262,1268,1274,1280,1286,1292,1298,1304,1310,1313,1322,1328,1337,1343,1352,1358,1367,1373,1379,1388,1394,1400,1406,1409,1415,1421,1427,1433,1436,1442,1448,1454,1457,1463,1466,1472,1478,1487,1496,1505,1517,1526,1538,1547,1556,1565,1574,1583,1592,1598,1607,1613,1622,1628,1634,1640,1646,1652,1658,1664,1670,1676,1682,1685,1685,1688,1688,1691,1694,1694,1697,1697,1700,1700,1694,1688,1679,1673,1664,1658,1649,1640,1634,1625,1619,1622,1625,1625,1628,1631,1634,1637,1640,1646,1646,1646,1646,1646,1649,1649,1643,1640,1634,1625,1616,1613,1607,1601,1595,1589,1583,1580,1577,1574,1568,1565,1562,1559,1556,1553,1550,1547,1544,1541,1547,1550,1550,1553,1559,1562,1568,1571,1574,1580,1583,1589,1592,1598,1601,1604,1604,1601,1601,1601,1598,1598,1598,1598,1598,1601,1601,1601,1607,1613,1616,1622,1628,1631,1637,1643,1646,1652,1658,1661,1667,1670,1673,1679,1682,1685,1691,1691,1691,1691,1688,1688,1685,1682,1679,1679,1676,1673,1673,1670,1667,1664,1664,1661,1661,1658,1658,1658,1655,1652,1652,1649,1649,1649,1646,1646,1646,1643,1643,1643,1643,1640,1640,1640,1640,1640,1640,1640,1640,1640,1643,1646,1649,1655,1658,1661,1664,1667,1667,1670,1673,1673,1679,1682,1685,1688,1691,1694,1697,1703,1706,1709,1712,1712,1715,1718,1724,1730,1733,1739,1745,1748,1754,1760,1763,1769,1772,1778,1781,1784,1787,1784,1784,1784,1784,1784,1784,1784,1784,1781,1781,1781,1778,1775,1775,1769,1766,1763,1760,1757,1754,1751,1748,1742,1736,1730,1724,1715,1709,1700,1694,1691,1685,1682,1682,1682,1682,1685,1682,1682,1679,1676,1676,1673,1673,1670,1667,1667,1664,1658,1652,1643,1637,1634,1628,1625,1619,1613,1607,1598,1586,1577,1565,1556,1544,1535,1523,1514,1502,1493,1481,1469,1457,1445,1433,1418,1406,1394,1385,1373,1361,1352,1343,1334,1322,1313,1301,1292,1283,1274,1262,1253,1241,1226,1211,1193
1262,1259,1256,1256,1253,1250,1247,1247,1244,1241,1241,1241,1241,1241,1244,1244,1244,1244,1247,1247,1247,1250,1253,1253,1256,1259,1262,1262,1265,1268,1268,1271,1274,1274,1277,1280,1280,1283,1286,1286,1289,1286,1286,1286,1283,1283,1280,1277,1277,1274,1271,1271,1268,1262,1262,1259,1259,1256,1256,1253,1247,1244,1238,1235,1232,1226,1223,1217,1214,1208,1208,1208,1205,1205,1205,1202,1202,1202,1199,1199,1199,1199,1196,1193,1190,1187,1184,1184,1184,1181,1181,1178,1175,1175,1172,1172,1175,1178,1178,1181,1181,1181,1184,1184,1184,1187,1190,1193,1196,1199,1199,1199,1199,1202,1205,1205,1208,1211,1211,1214,1217,1217,1220,1220,1223,1226,1226,1229,1232,1232,1235,1238,1238,1238,1238,1238,1238,1238,1235,1235,1235,1235,1232,1232,1232,1229,1229,1226,1223,1223,1220,1220,1217,1214,1214,1211,1211,1208,1205,1205,1202,1202,1199,1196,1196,1193,1193,1190,1190,1187,1184,1184,1181,1181,1178,1175,1175,1172,1172,1169,1169,1169,1169,1169,1169,1172,1172,1172,1175,1175,1175,1172,1169,1166,1163,1160,1157,1154,1151,1148,1145,1142,1139,1136,1133,1130,1127,1121,1118,1115,1109,1106,1103,1097,1091,1085,1079,1073,1067,1061,1055,1052,1049,1046,1043,1040,1037,1034,1028,1025,1019,1010,1004,998,992,986,980,974,968,968,968,968,968,968,968,968,977,986,995,1004,1010,1013,1019,1025,1031,1037,1046,1055,1067,1076,1085,1094,1100,1109,1118,1124,1133,1142,1148,1157,1166,1175,1181,1190,1196,1202,1208,1214,1217,1223,1226,1229,1235,1238,1241,1247,1253,1262,1268,1274,1280,1286,1292,1298,1304,1307,1313,1319,1325,1334,1340,1349,1355,1364,1370,1379,1385,1391,1397,1400,1406,1412,1418,1424,1427,1433,1439,1445,1448,1454,1457,1463,1469,1478,1487,1496,1505,1517,1529,1538,1547,1556,1565,1577,1583,1592,1598,1607,1613,1622,1628,1634,1640,1646,1652,1658,1661,1667,1673,1679,1682,1685,1685,1688,1688,1691,1691,1694,1694,1697,1694,1685,1679,1670,1664,1655,1649,1640,1631,1625,1616,1616,1619,1619,1622,1625,1628,1631,1634,1640,1643,1646,1646,1646,1646,1646,1643,1637,1634,1628,1622,1613,1607,1598,1592,1586,1583,1577,1574,1571,1565,1562,1559,1556,1553,1550,1547,1544,1541,1538,1538,1541,1544,1547,1550,1550,1556,1559,1562,1568,1571,1577,1580,1586,1592,1595,1595,1595,1592,1592,1589,1589,1589,1589,1589,1589,1592,1598,1601,1607,1613,1616,1622,1628,1631,1637,1643,1646,1652,1658,1661,1667,1670,1673,1679,1682,1685,1688,1688,1688,1685,1682,1682,1679,1676,1673,1673,1670,1667,1667,1664,1661,1661,1658,1658,1655,1655,1652,1652,1649,1649,1646,1646,1643,1643,1643,1640,1640,1640,1637,1637,1637,1637,1634,1634,1634,1634,1634,1634,1634,1634,1637,1640,1646,1649,1652,1655,1658,1661,1664,1664,1667,1670,1673,1679,1682,1685,1688,1691,1697,1700,1700,1703,1703,1703,1706,1712,1715,1721,1727,1733,1736,1742,1748,1751,1757,1763,1766,1772,1778,1781,1781,1781,1778,1778,1778,1778,1778,1778,1775,1775,1775,1772,1769,1766,1763,1760,1757,1754,1751,1748,1745,1742,1739,1736,1733,1727,1718,1712,1703,1697,1694,1688,1682,1679,1679,1679,1679,1679,1679,1679,1679,1676,1676,1673,1670,1670,1667,1667,1664,1661,1652,1646,1640,1634,1631,1625,1619,1616,1610,1607,1598,1589,1577,1568,1556,1547,1535,1523,1511,1499,1487,1475,1463,1451,1439,1427,1415,1403,1391,1382,1370,1361,1352,1343,1331,1322,1310,1301,1292,1283,1274,1262,1247,1232,1217,1202
1256,1253,1250,1250,1247,1244,1241,1241,1238,1235,1235,1235,1235,1238,1241,1238,1241,1241,1241,1244,1244,1247,1250,1253,1253,1256,1259,1259,1262,1265,1265,1268,1271,1271,1274,1277,1277,1280,1283,1283,1283,1280,1280,1280,1277,1277,1274,1271,1271,1268,1265,1265,1262,1259,1256,1253,1253,1250,1250,1247,1241,1238,1232,1229,1223,1220,1217,1211,1208,1202,1202,1202,1199,1199,1199,1196,1196,1193,1193,1193,1190,1190,1187,1184,1184,1184,1181,1181,1181,1178,1175,1175,1172,1172,1169,1166,1169,1175,1175,1178,1178,1178,1181,1181,1181,1184,1184,1184,1187,1190,1193,1193,1196,1196,1199,1202,1202,1205,1208,1208,1211,1211,1214,1217,1217,1220,1223,1223,1226,1229,1229,1232,1235,1235,1235,1235,1232,1232,1232,1229,1229,1229,1226,1226,1226,1223,1223,1220,1217,1217,1214,1214,1211,1211,1208,1205,1205,1202,1202,1199,1196,1196,1193,1193,1190,1190,1187,1187,1184,1184,1181,1178,1175,1175,1172,1172,1169,1166,1166,1163,1163,1160,1163,1163,1163,1163,1163,1166,1166,1169,1169,1166,1163,1160,1157,1154,1151,1148,1145,1142,1139,1136,1133,1130,1130,1124,1121,1115,1112,1109,1103,1100,1097,1091,1085,1079,1073,1067,1061,1055,1049,1046,1043,1043,1040,1037,1031,1028,1025,1022,1016,1010,1004,998,992,983,977,971,968,965,965,968,968,968,968,968,980,986,995,1001,1010,1016,1022,1028,1031,1043,1052,1061,1070,1079,1085,1094,1103,1109,1118,1127,1133,1142,1151,1157,1166,1175,1181,1190,1196,1202,1208,1214,1220,1223,1226,1229,1235,1238,1241,1247,1256,1262,1268,1274,1280,1286,1292,1298,1301,1307,1313,1316,1325,1331,1340,1346,1355,1361,1370,1376,1382,1388,1391,1397,1403,1409,1415,1418,1424,1430,1433,1439,1442,1448,1454,1460,1469,1478,1487,1496,1508,1520,1529,1538,1547,1559,1568,1574,1583,1589,1598,1604,1613,1619,1628,1631,1637,1643,1649,1655,1661,1667,1670,1676,1679,1682,1682,1685,1685,1688,1691,1691,1694,1691,1682,1676,1670,1661,1655,1646,1640,1631,1622,1616,1610,1613,1616,1616,1619,1622,1625,1631,1634,1637,1640,1643,1643,1643,1646,1643,1637,1634,1628,1625,1619,1610,1604,1595,1586,1580,1577,1571,1568,1565,1559,1556,1553,1550,1547,1544,1541,1535,1532,1532,1532,1535,1538,1541,1544,1544,1547,1550,1556,1559,1565,1568,1574,1580,1586,1586,1586,1583,1583,1583,1580,1580,1580,1580,1583,1586,1592,1598,1601,1607,1613,1616,1622,1628,1631,1637,1643,1646,1652,1658,1661,1664,1670,1673,1676,1679,1682,1682,1682,1679,1679,1676,1673,1673,1670,1667,1667,1664,1661,1661,1658,1655,1655,1652,1652,1649,1649,1649,1646,1646,1643,1640,1640,1640,1637,1637,1637,1634,1634,1634,1631,1631,1631,1631,1628,1628,1628,1628,1628,1628,1628,1631,1634,1640,1643,1646,1649,1652,1655,1658,1661,1664,1667,1670,1676,1679,1682,1688,1688,1691,1694,1694,1694,1694,1697,1700,1703,1709,1715,1718,1724,1730,1736,1739,1745,1751,1754,1760,1766,1772,1775,1775,1775,1775,1775,1775,1772,1772,1772,1772,1772,1769,1766,1763,1760,1757,1754,1751,1748,1745,1742,1739,1733,1730,1727,1724,1721,1715,1706,1700,1694,1691,1685,1682,1676,1676,1676,1676,1676,1676,1676,1676,1676,1673,1673,1670,1670,1667,1664,1664,1661,1655,1649,1640,1637,1634,1628,1622,1616,1613,1607,1601,1598,1589,1580,1568,1556,1544,1532,1520,1508,1496,1484,1472,1460,1448,1436,1424,1412,1400,1391,1379,1370,1361,1352,1340,1331,1319,1310,1301,1292,1280,1268,1256,1241,1226,1208
1253,1250,1247,1247,1244,1241,1241,1238,1235,1232,1232,1232,1232,1232,1235,1235,1235,1235,1238,1241,1244,1244,1247,1250,1250,1253,1256,1256,1259,1262,1262,1265,1268,1268,1271,1274,1274,1277,1280,1277,1277,1274,1274,1274,1271,1271,1268,1265,1265,1262,1259,1259,1256,1256,1253,1250,1247,1247,1244,1238,1235,1232,1226,1223,1217,1214,1211,1205,1199,1196,1196,1196,1196,1193,1193,1190,1190,1190,1187,1187,1184,1184,1184,1184,1181,1181,1178,1178,1175,1175,1172,1172,1169,1166,1166,1163,1166,1169,1172,1175,1175,1178,1178,1178,1178,1181,1181,1181,1184,1184,1187,1187,1190,1193,1193,1196,1196,1199,1202,1202,1205,1208,1208,1211,1214,1214,1217,1220,1220,1223,1226,1226,1229,1229,1229,1229,1226,1226,1226,1223,1223,1223,1220,1220,1220,1217,1217,1214,1214,1211,1208,1208,1205,1205,1202,1199,1199,1196,1196,1193,1193,1190,1190,1187,1187,1184,1184,1184,1181,1178,1178,1175,1172,1169,1169,1166,1163,1163,1160,1157,1157,1154,1154,1154,1157,1157,1157,1160,1160,1160,1163,1160,1157,1154,1151,1148,1145,1142,1139,1136,1133,1130,1130,1127,1124,1118,1115,1112,1106,1103,1100,1094,1091,1085,1082,1076,1070,1064,1058,1052,1046,1043,1040,1037,1034,1031,1028,1025,1022,1019,1013,1007,998,992,986,980,974,971,968,962,962,962,965,965,965,971,977,986,992,1001,1010,1016,1022,1028,1037,1046,1055,1064,1070,1079,1088,1094,1103,1112,1118,1127,1136,1142,1151,1160,1166,1175,1184,1190,1196,1202,1208,1214,1220,1223,1226,1229,1235,1238,1241,1250,1256,1262,1268,1274,1280,1286,1292,1295,1301,1307,1310,1316,1322,1331,1337,1346,1352,1361,1367,1373,1379,1382,1388,1394,1400,1403,1409,1415,1421,1424,1430,1433,1439,1448,1454,1463,1469,1478,1490,1499,1511,1523,1532,1541,1550,1559,1568,1574,1583,1589,1598,1604,1610,1619,1625,1631,1637,1643,1649,1655,1658,1664,1670,1673,1679,1679,1682,1682,1685,1685,1688,1688,1688,1679,1673,1667,1661,1652,1646,1637,1628,1622,1613,1607,1607,1610,1610,1613,1616,1619,1625,1628,1631,1634,1640,1643,1643,1643,1643,1637,1634,1628,1622,1619,1613,1607,1598,1592,1583,1574,1571,1565,1562,1559,1553,1550,1547,1544,1538,1535,1532,1529,1526,1526,1529,1532,1532,1535,1538,1538,1541,1544,1550,1553,1559,1562,1568,1577,1577,1577,1577,1574,1574,1571,1571,1571,1571,1577,1583,1586,1592,1598,1601,1607,1613,1616,1622,1628,1631,1637,1643,1646,1652,1658,1661,1664,1667,1670,1673,1676,1676,1676,1676,1673,1670,1667,1667,1664,1664,1661,1658,1658,1655,1655,1652,1649,1649,1649,1646,1646,1643,1643,1640,1640,1637,1637,1634,1634,1634,1631,1631,1631,1628,1628,1628,1628,1625,1625,1625,1622,1622,1622,1622,1622,1622,1625,1631,1634,1637,1640,1643,1646,1649,1655,1658,1661,1667,1670,1673,1676,1679,1682,1685,1688,1688,1688,1688,1688,1688,1691,1697,1700,1706,1712,1718,1721,1727,1733,1736,1742,1748,1754,1757,1763,1769,1769,1772,1772,1772,1772,1772,1772,1772,1769,1766,1763,1760,1757,1754,1748,1745,1742,1739,1736,1733,1730,1727,1724,1721,1718,1715,1709,1703,1697,1694,1688,1682,1679,1673,1670,1673,1673,1673,1673,1673,1673,1673,1673,1670,1670,1667,1667,1664,1664,1661,1658,1652,1643,1637,1634,1628,1625,1619,1613,1607,1604,1598,1595,1589,1577,1565,1553,1541,1529,1517,1505,1493,1481,1469,1457,1445,1433,1421,1409,1400,1388,1379,1367,1358,1349,1340,1328,1319,1310,1298,1286,1274,1262,1247,1232,1217
1247,1247,1244,1241,1241,1238,1238,1235,1232,1232,1229,1226,1226,1229,1229,1229,1232,1232,1235,1238,1241,1241,1244,1247,1247,1250,1253,1253,1256,1259,1259,1262,1265,1265,1268,1271,1271,1274,1274,1271,1271,1271,1268,1268,1265,1265,1262,1259,1259,1256,1253,1253,1250,1250,1247,1244,1241,1241,1238,1232,1229,1223,1220,1217,1211,1208,1202,1196,1193,1190,1190,1190,1190,1187,1187,1187,1184,1184,1181,1181,1181,1178,1178,1178,1178,1178,1175,1175,1175,1172,1169,1166,1166,1163,1163,1160,1160,1163,1169,1172,1172,1175,1175,1175,1178,1178,1178,1181,1181,1181,1184,1184,1187,1190,1190,1193,1196,1196,1199,1199,1202,1205,1205,1208,1211,1211,1214,1214,1217,1220,1220,1223,1226,1226,1223,1223,1220,1220,1220,1220,1217,1217,1217,1214,1214,1214,1211,1208,1208,1205,1205,1202,1199,1199,1196,1196,1193,1193,1190,1190,1187,1187,1184,1184,1181,1181,1181,1178,1178,1175,1172,1169,1169,1166,1163,1160,1160,1157,1154,1151,1151,1148,1148,1148,1148,1148,1151,1151,1154,1154,1157,1154,1151,1148,1145,1142,1139,1136,1133,1130,1130,1127,1124,1121,1118,1112,1109,1106,1100,1097,1094,1088,1085,1082,1076,1070,1064,1058,1052,1046,1043,1040,1037,1034,1031,1028,1022,1019,1016,1013,1007,1001,995,989,983,977,974,971,965,962,959,959,959,959,965,974,980,989,995,1001,1010,1016,1022,1031,1040,1046,1055,1064,1073,1079,1088,1097,1103,1112,1121,1127,1136,1145,1151,1160,1169,1175,1184,1190,1196,1202,1208,1217,1220,1223,1226,1229,1235,1238,1244,1250,1256,1262,1268,1274,1280,1286,1289,1295,1301,1304,1310,1313,1322,1328,1337,1343,1352,1358,1364,1370,1373,1379,1385,1391,1394,1400,1406,1409,1415,1418,1427,1433,1439,1445,1454,1463,1472,1481,1493,1502,1514,1523,1532,1541,1550,1559,1565,1574,1580,1589,1595,1604,1610,1619,1625,1631,1637,1640,1646,1652,1658,1661,1667,1670,1676,1676,1679,1679,1682,1685,1685,1685,1679,1670,1664,1658,1649,1643,1637,1628,1619,1613,1604,1604,1604,1607,1607,1610,1616,1619,1622,1625,1628,1634,1637,1640,1640,1640,1637,1634,1628,1622,1616,1613,1610,1604,1595,1589,1580,1571,1565,1562,1556,1553,1550,1544,1541,1538,1532,1529,1526,1523,1520,1520,1523,1526,1526,1529,1532,1532,1535,1538,1541,1547,1553,1559,1565,1568,1568,1568,1565,1565,1562,1562,1562,1568,1571,1577,1583,1586,1592,1598,1601,1607,1613,1616,1622,1628,1631,1637,1643,1646,1652,1655,1658,1661,1664,1667,1667,1667,1667,1667,1667,1664,1664,1661,1658,1658,1655,1652,1652,1649,1649,1646,1646,1646,1643,1643,1640,1640,1640,1637,1637,1634,1634,1631,1631,1628,1628,1628,1625,1625,1625,1622,1622,1622,1622,1619,1619,1619,1616,1616,1616,1616,1616,1619,1625,1628,1631,1634,1637,1643,1646,1652,1655,1661,1664,1667,1670,1673,1676,1676,1679,1679,1679,1679,1679,1682,1682,1682,1688,1694,1700,1703,1709,1715,1718,1724,1730,1736,1739,1745,1751,1757,1760,1763,1763,1766,1766,1769,1769,1769,1766,1763,1760,1757,1751,1748,1745,1742,1739,1736,1730,1727,1724,1721,1718,1715,1712,1709,1706,1703,1700,1694,1691,1685,1682,1676,1670,1667,1667,1667,1667,1667,1670,1670,1670,1670,1670,1670,1667,1664,1664,1661,1661,1658,1652,1646,1640,1637,1631,1625,1619,1616,1610,1604,1601,1595,1589,1583,1574,1562,1550,1538,1526,1514,1502,1490,1478,1466,1454,1442,1430,1418,1409,1397,1388,1376,1367,1358,1349,1337,1328,1316,1304,1292,1280,1268,1253,1241,1223
1247,1241,1241,1238,1235,1235,1232,1232,1229,1229,1226,1223,1223,1223,1223,1226,1229,1232,1232,1235,1238,1238,1241,1244,1244,1247,1250,1250,1253,1256,1256,1259,1262,1262,1265,1268,1268,1268,1268,1265,1265,1265,1262,1262,1259,1259,1256,1253,1253,1250,1250,1247,1244,1244,1241,1238,1238,1235,1232,1226,1223,1217,1214,1211,1205,1199,1193,1187,1187,1184,1184,1184,1184,1184,1181,1181,1178,1178,1178,1175,1175,1175,1175,1175,1175,1175,1172,1172,1172,1169,1166,1163,1163,1160,1157,1157,1154,1160,1163,1166,1169,1172,1172,1172,1175,1175,1175,1178,1178,1178,1181,1184,1184,1187,1187,1190,1193,1193,1196,1199,1199,1202,1205,1205,1208,1208,1211,1214,1214,1217,1220,1220,1220,1220,1220,1220,1217,1217,1214,1214,1214,1211,1211,1208,1208,1208,1205,1205,1202,1199,1199,1196,1196,1193,1193,1190,1190,1187,1187,1184,1184,1181,1181,1178,1178,1178,1175,1175,1172,1169,1169,1166,1163,1160,1160,1157,1154,1151,1151,1148,1145,1142,1142,1142,1142,1142,1145,1145,1145,1148,1148,1148,1145,1142,1139,1136,1133,1130,1130,1127,1124,1121,1118,1115,1112,1109,1103,1100,1094,1091,1088,1082,1079,1076,1070,1067,1061,1055,1049,1043,1037,1034,1034,1028,1025,1022,1019,1016,1010,1004,1001,998,989,986,980,977,974,968,965,962,956,953,956,962,968,977,983,989,998,1004,1010,1019,1025,1034,1040,1049,1055,1064,1073,1082,1088,1097,1106,1112,1121,1130,1136,1145,1154,1160,1169,1178,1184,1190,1196,1202,1211,1214,1220,1223,1226,1229,1235,1238,1244,1250,1256,1262,1268,1274,1280,1283,1289,1295,1298,1304,1307,1313,1319,1325,1334,1340,1349,1355,1358,1364,1370,1376,1379,1385,1391,1394,1400,1406,1412,1418,1424,1430,1439,1445,1454,1463,1475,1484,1496,1505,1514,1523,1532,1541,1550,1559,1565,1571,1580,1586,1595,1601,1610,1616,1622,1628,1634,1640,1646,1649,1655,1658,1664,1667,1673,1676,1676,1679,1679,1682,1682,1676,1667,1661,1655,1646,1640,1634,1628,1619,1610,1604,1601,1598,1601,1601,1607,1610,1613,1616,1619,1625,1628,1631,1634,1637,1640,1637,1634,1628,1622,1616,1610,1607,1601,1595,1589,1583,1577,1568,1559,1556,1550,1547,1544,1538,1535,1532,1526,1523,1520,1517,1514,1514,1517,1520,1520,1523,1526,1529,1532,1532,1535,1541,1547,1553,1559,1559,1559,1556,1556,1556,1553,1553,1559,1562,1568,1574,1577,1583,1589,1592,1598,1604,1607,1613,1619,1622,1628,1634,1637,1643,1649,1652,1655,1658,1658,1661,1661,1661,1661,1658,1658,1658,1655,1655,1652,1649,1646,1646,1643,1640,1640,1640,1640,1640,1637,1637,1637,1634,1634,1631,1631,1628,1628,1625,1625,1625,1622,1622,1622,1619,1619,1619,1619,1616,1616,1616,1613,1613,1613,1610,1610,1610,1610,1613,1619,1622,1625,1631,1634,1640,1643,1649,1655,1658,1661,1664,1664,1667,1670,1673,1673,1673,1673,1673,1673,1673,1676,1676,1682,1685,1691,1697,1700,1706,1712,1718,1721,1727,1733,1739,1745,1751,1754,1757,1757,1760,1760,1760,1763,1763,1760,1754,1751,1748,1745,1739,1736,1733,1730,1727,1724,1721,1718,1715,1712,1709,1703,1700,1700,1697,1694,1691,1688,1682,1679,1673,1670,1664,1664,1664,1664,1664,1664,1664,1664,1667,1667,1667,1667,1664,1664,1661,1658,1658,1655,1649,1643,1637,1631,1628,1622,1616,1610,1604,1601,1595,1592,1583,1574,1568,1559,1547,1535,1523,1511,1499,1487,1475,1463,1451,1439,1427,1418,1406,1394,1385,1376,1367,1358,1346,1334,1322,1310,1298,1283,1271,1259,1247,1232
1244,1238,1235,1235,1232,1232,1229,1226,1226,1223,1223,1220,1220,1220,1223,1223,1226,1229,1229,1232,1235,1235,1238,1241,1241,1244,1247,1247,1250,1253,1253,1256,1259,1259,1262,1265,1265,1262,1262,1259,1259,1259,1256,1256,1253,1253,1250,1247,1247,1244,1244,1241,1238,1238,1235,1232,1232,1229,1223,1220,1217,1211,1208,1202,1196,1190,1184,1181,1181,1178,1178,1178,1178,1178,1175,1175,1175,1172,1172,1169,1169,1169,1172,1172,1172,1169,1169,1169,1166,1166,1166,1163,1160,1157,1154,1154,1151,1154,1157,1163,1166,1169,1169,1172,1172,1172,1172,1175,1175,1175,1178,1181,1181,1184,1187,1187,1190,1193,1193,1196,1196,1199,1202,1202,1205,1208,1208,1211,1214,1214,1217,1217,1217,1217,1217,1217,1214,1214,1211,1211,1208,1208,1208,1205,1205,1202,1199,1199,1196,1196,1193,1193,1190,1190,1187,1187,1184,1184,1181,1181,1178,1178,1175,1175,1172,1172,1172,1169,1169,1166,1163,1160,1160,1157,1154,1151,1151,1148,1145,1142,1142,1139,1136,1133,1133,1136,1136,1139,1139,1139,1142,1142,1139,1136,1133,1130,1130,1127,1124,1121,1118,1115,1112,1109,1106,1103,1097,1094,1091,1085,1082,1076,1073,1070,1064,1061,1055,1049,1043,1037,1034,1031,1028,1025,1022,1019,1013,1007,1001,998,995,992,986,983,980,974,971,965,962,959,953,950,956,965,971,977,986,992,998,1007,1013,1019,1028,1037,1043,1052,1058,1067,1073,1082,1091,1097,1106,1115,1121,1130,1139,1145,1154,1163,1169,1178,1184,1190,1196,1202,1208,1214,1220,1223,1226,1229,1235,1238,1244,1250,1256,1262,1268,1274,1277,1283,1289,1292,1298,1301,1307,1313,1316,1325,1331,1340,1346,1349,1355,1361,1367,1370,1376,1382,1385,1391,1397,1403,1409,1418,1424,1430,1436,1445,1454,1466,1475,1487,1496,1505,1514,1523,1532,1541,1550,1556,1565,1571,1580,1586,1595,1601,1610,1616,1622,1628,1634,1637,1643,1646,1652,1655,1661,1664,1670,1673,1673,1676,1676,1679,1673,1664,1658,1652,1646,1637,1631,1625,1616,1610,1601,1595,1595,1595,1598,1601,1604,1607,1610,1613,1619,1622,1625,1628,1634,1637,1637,1634,1628,1622,1616,1610,1604,1598,1592,1586,1580,1574,1568,1562,1556,1550,1544,1541,1538,1532,1529,1526,1520,1517,1514,1508,1508,1508,1511,1514,1517,1520,1520,1523,1526,1529,1532,1538,1544,1550,1550,1550,1547,1547,1547,1547,1550,1547,1553,1559,1562,1568,1574,1577,1583,1589,1592,1598,1604,1607,1613,1619,1622,1628,1631,1640,1646,1646,1649,1652,1652,1652,1652,1652,1652,1652,1652,1649,1649,1646,1646,1643,1640,1637,1634,1634,1634,1634,1634,1634,1631,1631,1631,1628,1628,1628,1625,1625,1622,1622,1619,1619,1619,1616,1616,1616,1613,1613,1613,1613,1610,1610,1610,1607,1607,1607,1607,1604,1604,1610,1613,1619,1622,1628,1631,1634,1640,1643,1649,1652,1655,1658,1661,1664,1664,1664,1664,1664,1664,1664,1667,1667,1667,1670,1673,1679,1682,1688,1694,1700,1703,1709,1715,1721,1727,1733,1739,1745,1748,1748,1751,1754,1754,1754,1754,1754,1751,1748,1742,1739,1736,1733,1730,1727,1721,1718,1715,1712,1709,1706,1703,1700,1697,1694,1694,1691,1688,1685,1682,1679,1676,1670,1667,1661,1661,1661,1661,1661,1661,1661,1661,1661,1661,1661,1661,1664,1661,1661,1658,1658,1655,1649,1643,1640,1634,1628,1622,1619,1613,1607,1601,1595,1592,1586,1577,1568,1562,1553,1544,1532,1520,1508,1496,1484,1472,1460,1448,1436,1427,1415,1403,1394,1385,1373,1361,1349,1337,1325,1313,1301,1289,1277,1265,1253,1241
1241,1235,1232,1229,1229,1226,1226,1223,1220,1220,1217,1217,1214,1217,1220,1220,1223,1226,1226,1229,1232,1232,1235,1238,1238,1241,1244,1244,1247,1250,1250,1253,1256,1256,1259,1259,1259,1256,1256,1253,1253,1253,1250,1250,1247,1247,1244,1241,1241,1238,1238,1235,1232,1232,1229,1226,1223,1220,1217,1214,1208,1205,1199,1196,1190,1181,1178,1175,1175,1172,1172,1172,1172,1172,1172,1169,1169,1166,1166,1166,1166,1166,1166,1166,1166,1166,1166,1166,1163,1163,1163,1160,1157,1154,1151,1151,1148,1148,1154,1157,1160,1166,1166,1169,1169,1169,1169,1172,1172,1172,1175,1178,1181,1181,1184,1187,1187,1190,1190,1193,1196,1196,1199,1202,1202,1205,1208,1208,1211,1211,1214,1214,1214,1214,1214,1211,1211,1211,1208,1208,1205,1205,1202,1202,1202,1199,1196,1196,1193,1190,1190,1187,1187,1184,1184,1181,1181,1178,1175,1175,1175,1172,1172,1169,1169,1169,1166,1166,1163,1160,1160,1157,1154,1151,1151,1148,1145,1142,1142,1139,1136,1133,1133,1130,1127,1127,1130,1130,1133,1133,1136,1136,1133,1130,1130,1127,1124,1121,1118,1115,1112,1109,1106,1103,1100,1097,1091,1088,1085,1079,1076,1073,1067,1064,1058,1055,1052,1046,1040,1034,1031,1028,1025,1022,1016,1010,1004,998,995,992,989,986,983,977,971,965,962,959,953,950,950,953,959,965,974,980,986,995,1001,1007,1016,1022,1031,1037,1046,1052,1061,1067,1076,1082,1091,1100,1106,1115,1124,1130,1139,1148,1154,1163,1172,1178,1184,1190,1196,1202,1208,1211,1217,1223,1226,1229,1235,1238,1244,1250,1256,1262,1268,1271,1277,1283,1286,1292,1295,1301,1307,1310,1316,1322,1331,1337,1340,1346,1352,1355,1361,1367,1370,1376,1382,1388,1394,1403,1409,1415,1421,1430,1439,1448,1457,1469,1478,1487,1496,1505,1514,1523,1532,1538,1547,1556,1562,1571,1577,1586,1592,1601,1607,1616,1619,1625,1631,1634,1640,1643,1649,1652,1658,1661,1667,1670,1673,1673,1676,1670,1664,1655,1649,1643,1634,1628,1622,1613,1607,1601,1592,1592,1589,1592,1595,1598,1601,1604,1610,1613,1616,1619,1622,1628,1631,1634,1634,1628,1622,1616,1610,1604,1598,1592,1586,1580,1574,1568,1562,1556,1550,1541,1538,1535,1532,1526,1523,1520,1514,1511,1508,1502,1502,1505,1508,1508,1511,1514,1517,1517,1520,1523,1529,1532,1538,1541,1541,1541,1541,1544,1544,1544,1541,1544,1547,1553,1559,1562,1568,1574,1577,1583,1589,1592,1598,1604,1607,1613,1616,1622,1628,1637,1640,1643,1646,1646,1646,1646,1646,1646,1643,1643,1643,1643,1640,1640,1637,1634,1634,1631,1631,1631,1631,1628,1628,1628,1625,1625,1625,1625,1622,1622,1619,1619,1616,1616,1616,1613,1613,1613,1610,1610,1610,1610,1607,1607,1607,1604,1604,1604,1601,1601,1601,1601,1601,1604,1607,1613,1616,1622,1625,1628,1634,1637,1643,1646,1652,1655,1655,1655,1655,1655,1655,1655,1655,1658,1658,1658,1661,1661,1664,1670,1676,1682,1685,1691,1697,1703,1709,1715,1721,1724,1730,1736,1739,1742,1745,1745,1745,1745,1745,1745,1742,1739,1736,1730,1727,1724,1721,1718,1715,1712,1709,1706,1703,1697,1694,1694,1691,1691,1688,1685,1682,1679,1676,1673,1673,1670,1664,1658,1655,1655,1658,1658,1658,1658,1658,1658,1658,1658,1658,1658,1658,1658,1658,1655,1655,1652,1646,1640,1637,1631,1625,1619,1613,1607,1601,1598,1592,1589,1580,1571,1562,1553,1547,1538,1529,1517,1505,1493,1481,1469,1457,1445,1433,1424,1412,1403,1391,1379,1370,1358,1346,1334,1322,1310,1298,1286,1274,1265,1253
1238,1232,1229,1226,1223,1223,1220,1217,1217,1214,1214,1211,1211,1214,1217,1217,1220,1223,1223,1226,1229,1229,1232,1235,1235,1238,1241,1241,1244,1247,1247,1250,1253,1253,1253,1253,1253,1250,1250,1250,1247,1247,1244,1244,1241,1241,1238,1235,1235,1232,1232,1229,1226,1226,1223,1220,1217,1214,1211,1208,1202,1196,1193,1187,1181,1175,1169,1169,1169,1166,1166,1166,1166,1166,1166,1163,1163,1163,1160,1160,1160,1160,1160,1160,1160,1163,1163,1163,1160,1160,1160,1157,1154,1151,1148,1145,1145,1142,1148,1151,1157,1160,1163,1166,1166,1166,1166,1169,1169,1169,1172,1175,1178,1178,1181,1184,1184,1187,1190,1190,1193,1196,1196,1199,1199,1202,1205,1205,1208,1208,1208,1208,1208,1208,1208,1208,1208,1205,1205,1205,1202,1202,1199,1199,1196,1196,1193,1193,1190,1187,1184,1184,1181,1181,1178,1175,1175,1172,1172,1172,1169,1169,1166,1166,1166,1163,1163,1160,1160,1157,1154,1151,1151,1148,1145,1142,1142,1139,1136,1133,1133,1130,1130,1127,1124,1124,1124,1124,1124,1127,1127,1130,1130,1127,1124,1121,1118,1115,1112,1109,1106,1103,1100,1097,1094,1091,1088,1082,1079,1073,1070,1067,1061,1058,1055,1049,1046,1040,1034,1028,1025,1022,1019,1016,1010,1004,995,992,989,986,983,980,977,974,968,962,956,950,944,947,950,956,962,968,974,983,989,995,1001,1010,1016,1025,1034,1040,1049,1055,1064,1070,1079,1085,1094,1100,1109,1115,1124,1133,1139,1148,1157,1163,1172,1178,1184,1190,1196,1202,1205,1211,1217,1220,1226,1229,1235,1238,1244,1250,1256,1262,1265,1271,1277,1280,1286,1289,1295,1301,1304,1310,1316,1322,1328,1331,1337,1343,1346,1352,1358,1361,1367,1373,1382,1388,1394,1400,1409,1415,1421,1430,1439,1451,1460,1469,1478,1487,1496,1502,1511,1520,1529,1538,1547,1553,1562,1571,1577,1586,1592,1598,1607,1613,1619,1622,1628,1631,1637,1640,1646,1649,1655,1658,1664,1667,1670,1670,1667,1661,1652,1646,1640,1631,1625,1619,1613,1604,1598,1592,1589,1586,1586,1589,1592,1595,1598,1604,1607,1610,1613,1616,1619,1622,1628,1628,1628,1622,1616,1610,1604,1598,1592,1586,1580,1574,1568,1559,1553,1547,1538,1535,1532,1529,1526,1520,1517,1514,1508,1505,1502,1496,1496,1499,1502,1505,1505,1508,1511,1514,1517,1520,1526,1529,1532,1535,1535,1538,1538,1538,1538,1538,1535,1538,1544,1550,1553,1559,1565,1568,1574,1580,1583,1589,1595,1598,1601,1607,1610,1619,1628,1634,1637,1637,1637,1637,1637,1637,1637,1637,1637,1637,1637,1637,1634,1631,1631,1628,1625,1625,1625,1625,1625,1622,1622,1622,1619,1619,1619,1619,1616,1616,1616,1613,1613,1610,1610,1610,1607,1607,1607,1604,1604,1604,1604,1601,1601,1601,1598,1598,1595,1595,1592,1595,1598,1601,1604,1607,1613,1616,1622,1625,1628,1634,1637,1640,1646,1649,1649,1649,1649,1649,1649,1649,1649,1649,1652,1652,1652,1655,1658,1664,1667,1673,1679,1685,1691,1697,1703,1709,1712,1718,1724,1730,1733,1736,1736,1736,1739,1736,1736,1736,1736,1730,1727,1724,1721,1718,1712,1709,1706,1703,1700,1697,1694,1691,1691,1688,1685,1685,1682,1679,1679,1676,1673,1670,1667,1664,1661,1658,1652,1652,1652,1652,1652,1655,1655,1655,1655,1655,1655,1655,1655,1655,1655,1655,1655,1652,1646,1643,1637,1631,1625,1619,1613,1610,1604,1598,1592,1589,1580,1574,1565,1556,1547,1538,1532,1523,1514,1502,1490,1478,1466,1454,1442,1433,1421,1409,1400,1391,1379,1367,1355,1343,1331,1322,1310,1298,1286,1274,1262
1235,1232,1226,1220,1220,1217,1214,1214,1211,1211,1208,1208,1208,1208,1211,1214,1217,1220,1220,1223,1226,1226,1229,1232,1232,1235,1238,1238,1241,1244,1244,1247,1250,1250,1247,1247,1247,1244,1244,1244,1241,1241,1241,1238,1235,1235,1232,1229,1229,1226,1226,1223,1220,1220,1217,1211,1208,1205,1202,1199,1196,1190,1184,1178,1172,1166,1163,1163,1163,1163,1160,1160,1160,1160,1160,1160,1157,1157,1157,1157,1157,1157,1157,1157,1157,1157,1157,1157,1157,1157,1157,1154,1154,1151,1148,1145,1142,1139,1142,1148,1151,1157,1160,1163,1163,1163,1163,1163,1166,1166,1169,1172,1175,1178,1178,1181,1184,1184,1187,1190,1190,1193,1193,1196,1199,1199,1202,1202,1205,1205,1205,1205,1205,1205,1205,1205,1205,1202,1202,1199,1199,1196,1196,1196,1193,1190,1190,1187,1187,1184,1181,1178,1175,1175,1172,1172,1169,1169,1169,1166,1166,1163,1163,1163,1160,1160,1157,1157,1154,1151,1151,1148,1145,1142,1142,1139,1136,1136,1133,1130,1130,1127,1127,1124,1118,1118,1118,1118,1118,1121,1121,1121,1124,1121,1118,1115,1112,1109,1106,1103,1100,1097,1094,1091,1088,1085,1082,1076,1073,1070,1064,1061,1055,1052,1049,1043,1040,1037,1031,1025,1022,1019,1013,1007,1001,995,989,986,983,980,977,974,971,968,962,956,950,944,947,950,953,959,962,971,977,983,989,998,1004,1013,1019,1028,1034,1043,1049,1058,1064,1073,1082,1088,1097,1103,1112,1118,1127,1133,1142,1148,1157,1166,1172,1178,1184,1190,1196,1199,1205,1211,1214,1220,1226,1229,1235,1238,1244,1250,1256,1259,1265,1271,1274,1280,1283,1289,1295,1298,1304,1310,1313,1319,1322,1328,1334,1337,1343,1349,1355,1358,1367,1373,1379,1385,1394,1400,1406,1412,1421,1433,1442,1451,1460,1469,1475,1484,1493,1502,1508,1517,1526,1535,1544,1550,1559,1568,1574,1583,1589,1598,1607,1610,1616,1619,1625,1628,1634,1637,1643,1649,1652,1658,1661,1667,1667,1664,1658,1649,1643,1637,1631,1625,1616,1610,1604,1598,1592,1586,1583,1583,1583,1586,1589,1595,1598,1601,1604,1607,1610,1613,1616,1622,1625,1625,1622,1616,1610,1604,1598,1592,1583,1577,1571,1565,1556,1550,1544,1538,1529,1526,1523,1520,1520,1514,1511,1508,1502,1499,1496,1490,1490,1493,1496,1499,1502,1505,1505,1508,1511,1517,1520,1523,1526,1529,1532,1532,1532,1532,1532,1529,1529,1535,1538,1544,1550,1553,1559,1565,1568,1574,1580,1583,1586,1592,1595,1598,1607,1616,1625,1631,1631,1631,1631,1631,1631,1631,1628,1628,1628,1628,1628,1628,1625,1625,1622,1622,1622,1619,1619,1619,1619,1616,1616,1616,1613,1613,1613,1613,1610,1610,1610,1607,1607,1607,1604,1604,1604,1601,1601,1601,1601,1598,1598,1595,1592,1592,1589,1589,1586,1586,1589,1592,1595,1598,1601,1604,1607,1613,1616,1622,1625,1628,1634,1637,1640,1640,1640,1640,1640,1640,1640,1640,1643,1643,1643,1646,1646,1646,1649,1655,1661,1667,1673,1679,1685,1691,1694,1700,1706,1712,1718,1724,1727,1727,1727,1730,1730,1730,1730,1727,1727,1724,1718,1715,1712,1709,1706,1703,1700,1697,1694,1691,1688,1685,1685,1682,1682,1679,1676,1676,1673,1670,1667,1664,1661,1658,1655,1652,1649,1649,1649,1649,1649,1649,1649,1649,1649,1652,1652,1652,1652,1652,1652,1652,1652,1652,1649,1643,1637,1634,1628,1622,1616,1613,1607,1601,1595,1589,1583,1574,1565,1559,1550,1541,1532,1526,1517,1508,1499,1487,1475,1463,1451,1442,1427,1415,1406,1397,1388,1376,1367,1355,1343,1331,1319,1307,1295,1283,1274
1235,1229,1223,1220,1214,1214,1211,1208,1208,1205,1205,1205,1205,1205,1208,1211,1214,1217,1217,1220,1223,1223,1226,1229,1229,1232,1235,1235,1238,1241,1241,1244,1244,1244,1244,1241,1241,1238,1238,1238,1235,1235,1235,1232,1229,1229,1226,1223,1223,1220,1220,1217,1214,1211,1208,1202,1199,1199,1196,1190,1187,1181,1175,1169,1163,1160,1157,1157,1157,1157,1154,1154,1154,1154,1154,1154,1151,1151,1151,1151,1151,1151,1151,1151,1151,1151,1151,1151,1151,1151,1151,1151,1151,1148,1145,1142,1139,1136,1139,1142,1148,1151,1154,1157,1160,1160,1160,1160,1163,1163,1166,1169,1172,1175,1175,1178,1181,1181,1184,1187,1187,1190,1193,1193,1196,1199,1199,1199,1199,1202,1202,1202,1202,1202,1202,1202,1199,1199,1199,1196,1196,1193,1193,1190,1190,1187,1184,1184,1184,1181,1178,1175,1172,1169,1169,1166,1166,1166,1163,1163,1160,1160,1160,1157,1157,1154,1154,1151,1151,1148,1145,1142,1142,1139,1136,1136,1133,1133,1130,1130,1127,1124,1121,1118,1115,1112,1115,1115,1115,1115,1115,1115,1115,1115,1112,1109,1106,1103,1100,1097,1094,1091,1088,1085,1082,1079,1076,1070,1067,1064,1058,1055,1052,1046,1043,1037,1034,1031,1025,1022,1019,1010,1004,998,992,986,983,980,977,974,971,968,965,959,956,950,944,938,944,953,956,959,965,971,977,986,992,998,1007,1013,1022,1031,1037,1046,1052,1061,1067,1076,1082,1091,1097,1106,1112,1121,1127,1136,1142,1151,1160,1166,1172,1178,1184,1187,1193,1199,1202,1208,1214,1220,1223,1229,1235,1238,1244,1250,1253,1259,1262,1268,1274,1277,1283,1286,1292,1298,1301,1307,1310,1316,1322,1325,1331,1337,1340,1346,1352,1358,1364,1370,1379,1385,1391,1400,1406,1412,1424,1433,1442,1448,1457,1466,1475,1481,1490,1499,1508,1514,1523,1532,1541,1547,1556,1562,1571,1580,1589,1595,1601,1604,1610,1613,1619,1625,1628,1634,1637,1643,1649,1652,1658,1661,1661,1655,1649,1643,1637,1631,1625,1619,1613,1604,1598,1592,1586,1583,1580,1577,1580,1583,1586,1592,1595,1598,1601,1604,1607,1610,1613,1619,1619,1619,1616,1607,1601,1595,1589,1583,1574,1568,1562,1553,1547,1541,1535,1526,1520,1517,1517,1514,1511,1508,1505,1502,1496,1493,1490,1487,1484,1490,1493,1493,1496,1499,1502,1505,1508,1514,1517,1520,1523,1526,1529,1529,1526,1526,1526,1523,1523,1529,1535,1538,1544,1550,1553,1559,1565,1568,1571,1577,1580,1583,1589,1595,1604,1616,1622,1622,1622,1622,1622,1622,1622,1622,1622,1622,1622,1622,1622,1622,1619,1616,1616,1616,1616,1613,1613,1613,1613,1610,1610,1610,1607,1607,1607,1607,1604,1604,1604,1604,1601,1601,1601,1598,1598,1595,1595,1592,1592,1589,1589,1586,1586,1583,1583,1580,1580,1583,1586,1589,1592,1592,1595,1601,1604,1607,1613,1616,1622,1625,1628,1634,1634,1634,1634,1634,1634,1634,1634,1634,1634,1637,1637,1637,1640,1640,1643,1649,1655,1661,1667,1673,1676,1682,1688,1694,1700,1706,1712,1715,1718,1718,1718,1721,1721,1721,1721,1721,1718,1715,1712,1706,1703,1700,1697,1694,1691,1688,1688,1685,1682,1682,1679,1676,1676,1673,1670,1670,1667,1664,1661,1658,1655,1652,1649,1646,1649,1649,1649,1649,1649,1649,1649,1649,1649,1649,1649,1649,1649,1649,1649,1649,1649,1649,1649,1646,1640,1637,1631,1625,1619,1616,1610,1604,1598,1592,1586,1577,1568,1559,1553,1544,1535,1526,1517,1511,1502,1493,1481,1472,1460,1448,1433,1424,1415,1406,1397,1388,1376,1364,1352,1340,1328,1319,1307,1295,1283
1235,1229,1223,1217,1211,1208,1205,1205,1202,1202,1202,1202,1202,1202,1202,1208,1211,1214,1214,1217,1220,1220,1223,1226,1226,1229,1232,1232,1235,1238,1238,1241,1238,1238,1238,1235,1235,1232,1232,1232,1229,1229,1229,1226,1223,1223,1220,1220,1217,1214,1214,1211,1208,1202,1199,1196,1193,1190,1187,1184,1178,1172,1166,1160,1157,1154,1151,1151,1151,1151,1148,1148,1148,1148,1148,1148,1148,1148,1148,1148,1148,1148,1148,1148,1148,1148,1148,1148,1148,1148,1148,1148,1148,1145,1142,1142,1139,1136,1136,1139,1142,1148,1151,1154,1157,1157,1157,1157,1160,1160,1163,1166,1169,1172,1175,1175,1178,1181,1181,1184,1187,1187,1190,1193,1193,1196,1196,1196,1196,1196,1196,1196,1196,1196,1196,1196,1196,1196,1193,1193,1193,1190,1190,1187,1187,1184,1181,1181,1178,1178,1175,1172,1169,1166,1166,1163,1163,1160,1160,1157,1157,1157,1154,1154,1151,1151,1151,1148,1145,1142,1142,1139,1139,1136,1136,1133,1130,1130,1127,1127,1124,1121,1118,1115,1109,1109,1109,1109,1109,1109,1109,1109,1109,1109,1106,1103,1100,1097,1094,1091,1088,1085,1082,1079,1079,1073,1070,1067,1061,1058,1052,1049,1046,1040,1037,1034,1028,1025,1019,1016,1010,1004,995,989,983,980,977,974,971,965,962,959,956,953,950,944,938,935,944,950,959,962,965,974,980,986,995,1001,1010,1016,1025,1031,1040,1046,1055,1061,1070,1079,1085,1094,1100,1109,1115,1124,1130,1139,1145,1154,1160,1169,1172,1178,1181,1187,1193,1196,1202,1208,1211,1217,1223,1229,1232,1238,1241,1247,1253,1256,1262,1265,1271,1274,1280,1286,1289,1295,1298,1304,1310,1313,1319,1322,1328,1334,1337,1343,1352,1358,1364,1370,1376,1385,1391,1397,1406,1412,1421,1430,1439,1445,1454,1463,1472,1478,1487,1496,1505,1511,1520,1529,1538,1544,1553,1562,1571,1577,1586,1589,1595,1598,1604,1607,1613,1616,1622,1628,1631,1637,1640,1646,1649,1655,1655,1649,1643,1637,1631,1625,1619,1613,1607,1601,1592,1586,1580,1577,1577,1577,1580,1583,1586,1589,1592,1595,1598,1601,1604,1607,1610,1616,1616,1613,1607,1598,1592,1586,1580,1571,1565,1559,1553,1544,1538,1532,1523,1517,1514,1511,1508,1505,1502,1499,1499,1496,1493,1487,1484,1481,1481,1484,1487,1490,1490,1493,1496,1499,1505,1508,1511,1514,1517,1517,1520,1523,1520,1520,1517,1514,1520,1523,1529,1535,1538,1544,1550,1553,1556,1562,1565,1568,1574,1577,1583,1595,1604,1610,1613,1616,1616,1616,1616,1616,1616,1616,1613,1613,1613,1613,1613,1613,1613,1610,1610,1610,1610,1607,1607,1607,1607,1604,1604,1604,1604,1601,1601,1601,1598,1598,1598,1598,1595,1592,1592,1589,1589,1586,1586,1583,1583,1580,1580,1577,1577,1574,1574,1574,1577,1580,1583,1586,1589,1589,1592,1595,1601,1604,1607,1613,1616,1622,1625,1628,1628,1625,1625,1625,1625,1625,1625,1625,1628,1628,1631,1631,1634,1637,1640,1643,1649,1655,1658,1664,1670,1676,1682,1688,1694,1697,1703,1706,1709,1709,1709,1712,1712,1712,1712,1712,1709,1706,1703,1700,1697,1694,1691,1688,1685,1682,1682,1679,1676,1676,1673,1670,1670,1667,1667,1664,1661,1658,1655,1652,1649,1646,1643,1646,1649,1649,1649,1649,1649,1649,1649,1649,1649,1649,1649,1649,1649,1649,1649,1649,1649,1649,1649,1646,1643,1640,1634,1628,1622,1619,1613,1607,1601,1592,1586,1580,1571,1562,1553,1544,1538,1529,1520,1511,1505,1496,1487,1478,1466,1454,1442,1430,1421,1412,1406,1397,1385,1373,1364,1352,1340,1328,1316,1304,1295
1235,1229,1223,1217,1211,1205,1202,1199,1199,1199,1199,1199,1199,1196,1199,1202,1208,1211,1211,1214,1217,1217,1220,1223,1223,1226,1229,1229,1232,1235,1235,1235,1232,1232,1232,1229,1229,1229,1226,1226,1223,1223,1223,1220,1217,1217,1214,1214,1211,1208,1208,1202,1199,1196,1190,1187,1184,1181,1178,1175,1169,1163,1157,1151,1148,1145,1145,1145,1145,1145,1142,1142,1142,1142,1142,1142,1142,1142,1142,1142,1142,1142,1142,1142,1142,1142,1142,1142,1142,1142,1142,1142,1142,1142,1142,1139,1136,1136,1133,1133,1139,1142,1145,1148,1151,1154,1154,1154,1154,1157,1160,1163,1166,1169,1172,1172,1175,1178,1181,1181,1184,1184,1187,1190,1190,1193,1193,1193,1193,1193,1193,1193,1193,1193,1193,1193,1193,1193,1190,1190,1187,1187,1187,1184,1181,1178,1178,1175,1175,1172,1169,1166,1166,1163,1160,1160,1160,1157,1157,1154,1154,1151,1151,1148,1148,1148,1145,1145,1142,1139,1139,1136,1136,1133,1133,1130,1130,1127,1124,1124,1121,1118,1115,1109,1106,1103,1103,1103,1103,1103,1106,1106,1106,1103,1100,1097,1094,1091,1088,1085,1082,1079,1079,1076,1073,1067,1064,1061,1055,1052,1049,1043,1040,1034,1031,1028,1022,1019,1016,1010,1004,998,989,983,977,974,971,968,962,959,956,953,950,947,941,938,932,935,944,950,959,965,968,974,983,989,995,1004,1013,1019,1028,1034,1043,1049,1058,1064,1073,1079,1088,1094,1103,1109,1118,1124,1133,1139,1148,1154,1163,1169,1175,1175,1181,1187,1190,1196,1202,1205,1211,1217,1220,1226,1232,1232,1238,1244,1247,1253,1259,1262,1268,1274,1277,1283,1286,1292,1298,1301,1307,1310,1316,1322,1325,1331,1337,1343,1349,1358,1364,1370,1376,1382,1391,1397,1403,1412,1421,1427,1436,1445,1451,1460,1469,1478,1484,1493,1502,1511,1517,1526,1535,1541,1550,1559,1568,1574,1580,1586,1589,1592,1598,1601,1607,1610,1616,1622,1625,1631,1634,1640,1643,1649,1646,1640,1637,1631,1625,1619,1613,1607,1601,1595,1589,1583,1577,1574,1577,1577,1580,1583,1586,1592,1595,1598,1601,1604,1607,1610,1613,1613,1610,1604,1595,1589,1583,1577,1568,1562,1556,1550,1541,1535,1529,1523,1514,1508,1505,1502,1499,1496,1496,1493,1490,1487,1484,1481,1478,1475,1475,1478,1481,1484,1487,1490,1493,1496,1499,1502,1505,1505,1508,1511,1511,1514,1514,1511,1508,1511,1514,1520,1526,1529,1535,1538,1541,1547,1550,1556,1559,1562,1568,1574,1583,1592,1595,1601,1604,1607,1607,1607,1607,1610,1607,1607,1607,1607,1607,1607,1607,1607,1604,1604,1604,1604,1604,1601,1601,1601,1601,1598,1598,1598,1598,1595,1595,1595,1592,1592,1592,1589,1586,1586,1583,1583,1580,1580,1577,1574,1574,1571,1571,1568,1568,1565,1568,1571,1574,1577,1580,1583,1586,1586,1589,1592,1595,1601,1604,1607,1613,1616,1619,1619,1619,1619,1619,1619,1616,1616,1619,1619,1622,1622,1625,1628,1631,1631,1634,1637,1643,1649,1652,1658,1664,1670,1676,1679,1685,1691,1691,1694,1697,1697,1700,1703,1703,1703,1703,1703,1703,1700,1694,1691,1688,1685,1682,1682,1679,1679,1676,1673,1673,1670,1667,1667,1664,1661,1661,1658,1655,1652,1649,1646,1643,1640,1643,1646,1649,1649,1649,1649,1649,1649,1649,1649,1649,1649,1649,1649,1649,1649,1646,1646,1646,1646,1646,1643,1643,1640,1637,1631,1628,1622,1616,1610,1607,1598,1589,1580,1571,1565,1556,1550,1541,1532,1526,1517,1511,1502,1493,1484,1472,1460,1448,1439,1430,1421,1412,1403,1394,1385,1373,1361,1349,1337,1325,1316,1304
1232,1226,1223,1217,1211,1205,1199,1196,1196,1196,1193,1193,1193,1193,1193,1199,1202,1208,1208,1211,1214,1214,1217,1220,1220,1223,1226,1226,1229,1232,1229,1229,1226,1226,1226,1223,1223,1223,1220,1220,1220,1217,1217,1214,1211,1211,1208,1208,1205,1202,1199,1196,1190,1187,1181,1178,1175,1172,1169,1163,1160,1154,1148,1145,1142,1139,1139,1139,1139,1139,1136,1136,1136,1136,1136,1136,1136,1136,1136,1136,1136,1136,1136,1136,1136,1139,1139,1139,1139,1139,1139,1139,1139,1139,1139,1136,1133,1133,1133,1133,1133,1136,1139,1142,1145,1148,1151,1151,1151,1154,1157,1160,1163,1166,1169,1169,1172,1175,1178,1178,1181,1184,1184,1187,1187,1187,1187,1187,1187,1190,1190,1190,1190,1190,1190,1190,1190,1190,1187,1187,1184,1184,1181,1181,1178,1175,1172,1172,1169,1169,1166,1163,1160,1160,1157,1157,1154,1154,1151,1151,1151,1148,1148,1145,1145,1142,1142,1139,1139,1136,1136,1133,1133,1130,1130,1127,1127,1124,1124,1121,1118,1115,1109,1106,1103,1100,1100,1100,1100,1100,1100,1100,1100,1100,1097,1091,1088,1085,1082,1079,1079,1076,1073,1070,1067,1061,1058,1055,1049,1046,1043,1037,1034,1031,1025,1022,1019,1016,1013,1007,998,992,983,977,971,965,962,959,956,953,950,947,944,938,935,929,926,935,941,950,956,965,971,977,983,992,998,1007,1013,1022,1028,1037,1043,1052,1058,1067,1073,1082,1088,1097,1103,1112,1118,1127,1133,1142,1148,1157,1166,1172,1175,1175,1181,1184,1190,1196,1199,1205,1211,1214,1220,1226,1229,1232,1235,1238,1244,1250,1253,1259,1265,1268,1274,1280,1283,1289,1295,1298,1304,1310,1313,1319,1322,1328,1337,1343,1349,1355,1361,1370,1376,1382,1388,1394,1403,1412,1418,1427,1436,1442,1451,1460,1466,1475,1484,1490,1499,1508,1514,1523,1532,1538,1547,1553,1562,1568,1574,1580,1580,1586,1589,1595,1601,1604,1610,1613,1619,1622,1628,1631,1637,1640,1640,1634,1628,1622,1616,1610,1604,1598,1592,1586,1583,1577,1574,1577,1577,1577,1580,1580,1586,1589,1592,1598,1601,1604,1607,1610,1610,1607,1601,1595,1586,1580,1574,1568,1559,1553,1547,1538,1532,1526,1520,1511,1505,1499,1496,1493,1493,1490,1487,1484,1481,1481,1478,1475,1472,1469,1469,1472,1475,1478,1481,1484,1487,1490,1493,1493,1496,1499,1499,1502,1505,1505,1508,1505,1502,1505,1511,1514,1520,1523,1526,1532,1535,1541,1544,1547,1553,1556,1562,1571,1580,1583,1589,1592,1598,1598,1598,1601,1601,1601,1601,1601,1601,1601,1601,1601,1598,1598,1598,1598,1598,1598,1598,1595,1595,1595,1595,1592,1592,1592,1592,1589,1589,1589,1586,1586,1583,1580,1577,1577,1574,1574,1571,1571,1568,1568,1565,1565,1562,1562,1559,1562,1565,1568,1571,1574,1577,1580,1583,1583,1586,1589,1592,1595,1601,1604,1607,1613,1613,1613,1613,1610,1610,1610,1610,1610,1613,1613,1616,1616,1619,1622,1625,1628,1628,1634,1637,1643,1646,1652,1658,1664,1667,1673,1676,1679,1682,1682,1685,1688,1688,1691,1691,1694,1694,1694,1694,1691,1688,1685,1682,1679,1679,1676,1673,1673,1670,1667,1667,1664,1661,1661,1658,1658,1655,1652,1649,1646,1643,1640,1637,1640,1643,1646,1646,1646,1646,1646,1646,1646,1646,1646,1646,1646,1646,1646,1646,1646,1646,1646,1646,1646,1646,1643,1640,1640,1637,1634,1631,1625,1619,1613,1610,1601,1592,1586,1580,1571,1562,1556,1547,1538,1532,1523,1517,1508,1499,1490,1478,1466,1454,1445,1436,1430,1421,1412,1403,1394,1382,1370,1361,1349,1337,1325,1313
1229,1226,1220,1214,1208,1202,1196,1193,1190,1190,1190,1190,1190,1190,1190,1193,1199,1202,1205,1208,1211,1211,1214,1217,1217,1220,1223,1223,1226,1226,1223,1223,1223,1220,1220,1217,1217,1217,1214,1214,1214,1211,1211,1208,1205,1205,1202,1202,1199,1196,1190,1187,1181,1178,1175,1172,1169,1163,1160,1154,1148,1145,1142,1139,1136,1133,1133,1133,1133,1133,1130,1130,1130,1133,1133,1133,1133,1130,1130,1130,1130,1130,1130,1133,1133,1133,1133,1133,1133,1133,1133,1133,1133,1133,1133,1133,1133,1133,1133,1133,1130,1133,1136,1139,1142,1145,1148,1148,1151,1151,1154,1157,1160,1163,1166,1169,1169,1172,1175,1178,1178,1181,1184,1184,1184,1184,1184,1184,1184,1184,1184,1184,1184,1184,1184,1184,1184,1184,1184,1184,1181,1181,1178,1175,1175,1172,1169,1169,1166,1163,1160,1160,1157,1154,1154,1154,1151,1151,1148,1148,1145,1145,1145,1142,1142,1139,1136,1133,1133,1130,1130,1130,1127,1127,1124,1124,1124,1121,1121,1118,1112,1109,1106,1103,1097,1094,1094,1094,1094,1094,1094,1097,1097,1097,1091,1088,1082,1079,1079,1076,1073,1070,1067,1064,1061,1058,1052,1049,1046,1040,1037,1031,1028,1025,1019,1016,1013,1010,1007,1001,992,983,977,971,965,959,956,953,950,947,944,938,935,929,926,923,923,932,941,947,956,965,971,977,986,992,1001,1007,1016,1022,1031,1037,1046,1052,1061,1067,1076,1082,1091,1097,1106,1112,1121,1127,1136,1145,1151,1160,1166,1172,1175,1175,1178,1184,1187,1193,1199,1205,1208,1214,1220,1223,1226,1229,1232,1235,1241,1247,1250,1256,1262,1265,1271,1277,1280,1286,1289,1295,1301,1304,1310,1316,1319,1328,1334,1340,1346,1355,1361,1367,1373,1379,1388,1394,1403,1409,1418,1427,1436,1442,1451,1460,1466,1475,1481,1490,1499,1505,1514,1517,1523,1529,1538,1547,1556,1562,1571,1574,1574,1580,1583,1589,1592,1598,1604,1607,1613,1616,1619,1625,1628,1634,1631,1625,1622,1616,1610,1604,1598,1592,1586,1580,1574,1571,1574,1574,1577,1580,1580,1583,1583,1586,1592,1595,1601,1604,1607,1607,1604,1598,1592,1586,1577,1571,1565,1556,1550,1544,1538,1529,1523,1517,1508,1502,1496,1490,1490,1487,1484,1481,1478,1478,1475,1472,1469,1466,1466,1463,1463,1466,1469,1472,1478,1478,1481,1481,1484,1487,1487,1490,1493,1493,1496,1499,1499,1496,1496,1499,1505,1508,1514,1517,1520,1526,1529,1532,1538,1541,1544,1550,1559,1568,1571,1577,1580,1586,1589,1589,1592,1592,1592,1592,1592,1592,1595,1595,1595,1592,1592,1592,1592,1592,1592,1592,1592,1589,1589,1589,1589,1586,1586,1586,1586,1583,1583,1580,1577,1577,1574,1571,1568,1568,1565,1565,1562,1562,1559,1559,1556,1556,1553,1553,1556,1559,1562,1565,1568,1571,1574,1577,1580,1580,1583,1586,1589,1592,1595,1601,1604,1607,1607,1604,1604,1604,1604,1604,1604,1604,1607,1607,1610,1613,1616,1619,1622,1625,1625,1628,1631,1634,1640,1646,1652,1658,1661,1667,1670,1670,1670,1673,1673,1676,1676,1679,1682,1682,1685,1685,1685,1682,1679,1679,1676,1673,1673,1670,1670,1667,1664,1664,1661,1658,1658,1655,1652,1652,1649,1646,1646,1643,1640,1637,1637,1637,1640,1643,1646,1646,1646,1646,1646,1646,1646,1646,1646,1646,1646,1646,1646,1646,1646,1646,1646,1646,1643,1643,1640,1637,1637,1634,1631,1628,1622,1616,1613,1607,1598,1592,1586,1577,1568,1562,1553,1547,1538,1529,1523,1514,1505,1496,1484,1472,1463,1454,1445,1436,1427,1418,1409,1403,1394,1382,1370,1358,1346,1334,1325
